# .PCD v0.7 - Point Cloud Data file format
VERSION 0.7
FIELDS x y z
SIZE 4 4 4
TYPE F F F
COUNT 1 1 1
WIDTH 1476
HEIGHT 1
VIEWPOINT 0 0 0 1 0 0 0
POINTS 1476
DATA ascii
1.0593489 -5.134625 -3.1230257
0.2432459 -1.1888406 -0.89103425
0.77556968 -2.0674975 -1.8204074
0.18975808 -0.94499046 -0.86962807
0.31064153 -0.82234263 -0.87727106
0.15458511 -0.78371197 -0.88285917
0.25637144 -0.67087895 -0.87153059
0.13005568 -0.66760081 -0.87846196
4.6984878 -13.03664 2.666816
22.538057 -106.75497 17.080412
4.7002554 -13.070072 1.6913193
23.221428 -110.0873 10.750852
4.6693316 -12.998353 0.95852792
6.4464874 -30.553335 1.4545674
3.0464773 -8.4925785 0.20866503
1.7951471 -8.507575 0
2.924545 -8.1619253 -0.20048444
1.7222644 -8.1687889 -0.38769174
2.9144228 -8.1381702 -0.59598923
1.7165908 -8.1488972 -0.75908613
2.9091718 -8.1190958 -0.99841785
1.7073463 -8.1260128 -1.1635395
2.9012375 -8.0925646 -1.5004727
1.6836922 -8.0691185 -2.3489575
2.8987033 -8.0766878 -1.9573466
1.6666061 -8.0220499 -2.8059924
2.3003101 -6.3623133 -2.7083766
1.0655891 -5.211237 -2.7942848
1.9815484 -5.4639869 -2.6891029
1.0401899 -5.1276026 -3.1165972
0.23852412 -1.1857289 -0.88801891
0.76968658 -2.0737836 -1.8236179
0.18836458 -0.95457238 -0.87817061
0.30852589 -0.82498974 -0.87907249
0.15137456 -0.7810061 -0.87907815
0.25525042 -0.67460591 -0.87546527
0.12745303 -0.66659582 -0.87644708
4.6636734 -13.083018 2.6729729
22.209427 -107.04581 17.114449
4.6487799 -13.070034 1.6891987
6.5361304 -31.522844 3.0738468
4.6214247 -13.007524 0.9580074
6.4219065 -30.971794 1.4734337
3.0101235 -8.4843206 0.20820083
2.7915428 -13.468657 0
2.8901882 -8.1555958 -0.20007825
1.6922215 -8.1674147 -0.38734233
2.8818305 -8.1365395 -0.59512591
1.6886395 -8.1572781 -0.75931406
2.8741715 -8.1104774 -0.99610865
1.6784712 -8.1294994 -1.1631912
2.873795 -8.1049633 -1.5009042
1.6531053 -8.0631733 -2.3455186
2.8664138 -8.0752764 -1.954556
1.6367052 -8.0185518 -2.8027399
2.2827785 -6.3834052 -2.7139764
1.0482603 -5.2192583 -2.796622
1.9632298 -5.4730039 -2.6901579
1.0189415 -5.1143785 -3.1063113
0.23400149 -1.184597 -0.88651121
0.7611171 -2.0728617 -1.8204074
0.18400536 -0.94984567 -0.87304509
0.30625159 -0.82768524 -0.8808738
0.14924701 -0.78474599 -0.88285917
0.25234655 -0.67405069 -0.87349796
0.12539181 -0.6684925 -0.87846196
4.6334915 -13.143201 2.6819711
21.893835 -107.40826 17.160088
4.5957136 -13.065115 1.6864723
6.4186063 -31.508888 3.0702784
4.5693746 -13.004754 0.9566192
6.313756 -30.994022 1.4734337
2.9788332 -8.4900589 0.20808476
2.6842029 -13.181892 0
2.8608749 -8.1632757 -0.20002021
1.6617117 -8.1634827 -0.38687649
2.853411 -8.1465502 -0.59512591
1.6581731 -8.1533632 -0.75840253
2.8425553 -8.1110878 -0.99495405
1.6466436 -8.1183252 -1.1607527
2.8397775 -8.0986805 -1.4978833
1.6254234 -8.0712509 -2.3462064
2.8382082 -8.0852327 -1.954556
1.6087053 -8.0242157 -2.8027399
2.258934 -6.3869624 -2.7121098
1.0279022 -5.2120433 -2.7907786
1.9486663 -5.4926376 -2.6964877
1.0006723 -5.1158004 -3.1050258
0.23061582 -1.1893239 -0.88952661
0.75124979 -2.0683038 -1.8139862
0.18337452 -0.96483403 -0.88671321
0.30396229 -0.83037496 -0.88267523
0.14650683 -0.78526217 -0.88285917
0.25161958 -0.67925948 -0.8793999
0.12279624 -0.66746938 -0.87644708
4.6086063 -13.219558 2.6942847
21.56823 -107.73106 17.199539
4.5468173 -13.071703 1.6852605
21.214689 -106.06117 10.33528
4.5198565 -13.008845 0.9557516
6.1761422 -30.868944 1.4664462
2.94262 -8.4815168 0.20762055
2.5867372 -12.93377 0
2.824991 -8.1519613 -0.19949798
1.6327169 -8.1667843 -0.38676006
2.8200557 -8.1423225 -0.59409004
1.6297023 -8.1591015 -0.75840253
2.8101561 -8.10923 -0.9935109
1.6173294 -8.1191664 -1.160056
2.8098757 -8.1038914 -1.4970202
1.5972396 -8.0768757 -2.3462064
2.8059685 -8.08358 -1.9517652
1.5797739 -8.0251436 -2.8011141
2.242758 -6.4123197 -2.7195761
1.0105407 -5.2199397 -2.7931161
1.9287301 -5.4972677 -2.6954327
0.97797 -5.0939927 -3.089597
0.22683144 -1.1920815 -0.89103425
0.74922919 -2.0853357 -1.8268286
0.17835818 -0.9564926 -0.87817061
0.29986987 -0.82817531 -0.87907249
0.14318773 -0.78254843 -0.87907815
0.24602231 -0.67145807 -0.86759591
0.12123433 -0.67226702 -0.88249159
4.5616326 -13.233243 2.6938109
4.4866252 -13.045256 1.6798075
20.907158 -106.45448 10.366442
4.4719877 -13.017468 0.95523107
6.0548782 -30.821703 1.4631854
2.9129961 -8.4917374 0.20762055
2.6113632 -13.29844 0
2.795707 -8.1594086 -0.19943994
1.6022782 -8.162632 -0.38629422
2.789999 -8.147397 -0.59374475
1.6002549 -8.1598539 -0.75794673
2.7794158 -8.1119442 -0.99264497
1.5885038 -8.1223326 -1.1597077
2.7799721 -8.1089907 -1.4961572
1.5690364 -8.0824022 -2.3462064
2.7777348 -8.0933256 -1.9517652
1.5508555 -8.0259666 -2.7994878
2.221879 -6.4244928 -2.7214427
0.99149054 -5.2190924 -2.7907786
1.9110172 -5.5082488 -2.6975427
0.95978677 -5.0952678 -3.0883112
0.22266892 -1.192866 -0.89103425
0.17566471 -0.96070182 -0.88158762
0.29815781 -0.83247674 -0.88267523
0.14130406 -0.78787708 -0.88474959
0.24527419 -0.67665625 -0.87349796
0.11863577 -0.67122746 -0.88047671
4.5130353 -13.242116 2.6923902
4.4426603 -13.065537 1.6804135
6.0779376 -31.520611 3.0650451
4.4144835 -12.99758 0.95262825
5.9344916 -30.77644 1.4600409
2.8785162 -8.4876528 0.20727237
2.5989642 -13.484226 0
2.764801 -8.1620169 -0.19926587
1.5742475 -8.1706276 -0.38641068
2.7567396 -8.1429148 -0.59270883
1.570822 -8.1605005 -0.75749093
2.7470958 -8.1098375 -0.99120182
1.5596759 -8.1253977 -1.1593592
2.7461116 -8.1023226 -1.4931364
1.5390172 -8.0783844 -2.3434551
2.7463322 -8.0937433 -1.9495329
1.5237098 -8.0359774 -2.8011141
2.2046986 -6.4475689 -2.7279756
0.97367036 -5.2246943 -2.7919474
1.8969331 -5.529891 -2.7049274
0.93966407 -5.0859361 -3.0805969
0.21885854 -1.1955984 -0.89254194
0.17231016 -0.96130919 -0.88158762
0.29641938 -0.83677632 -0.88627797
0.13855301 -0.78836554 -0.88474959
0.24449274 -0.68185717 -0.8793999
0.11579992 -0.66871864 -0.87644708
4.4643908 -13.243052 2.6895487
4.3985171 -13.077846 1.6801106
5.9770293 -31.529774 3.0640938
4.3642063 -12.99087 0.95106655
5.8421555 -30.847479 1.4624866
2.8471725 -8.4876747 0.20704028
2.5449431 -13.443642 0
2.7351699 -8.1588144 -0.19897573
1.5452893 -8.165987 -0.38594484
2.7255933 -8.1349831 -0.59150028
1.5428286 -8.1607714 -0.75703514
2.7184443 -8.1090097 -0.99004722
1.5313487 -8.1232262 -1.1583141
2.720644 -8.1109095 -1.4931364
1.5126611 -8.0858059 -2.3441427
2.7193384 -8.0977106 -1.9484166
1.4966211 -8.038662 -2.8003008
2.1866651 -6.4610534 -2.7307756
0.95594257 -5.2257199 -2.7907786
1.8824697 -5.5444059 -2.7091475
0.92050421 -5.076365 -3.0728827
0.21509548 -1.1962816 -0.89254194
0.16960055 -0.96364415 -0.88329619
0.2930637 -0.83612078 -0.88447654
0.13689235 -0.79363608 -0.89042109
0.24130386 -0.67971933 -0.87546527
0.11418144 -0.67199951 -0.88047671
7.0532498 -21.149271 4.2945638
4.342586 -13.054687 1.6752635
5.6102276 -30.140139 2.9270766
4.3171687 -12.99344 0.95019895
17.832071 -95.920464 4.5481725
2.8174355 -8.4923267 0.20692423
2.7418087 -14.752277 0
2.7065248 -8.1630964 -0.19885968
1.5182014 -8.1710663 -0.38594484
2.6946757 -8.1321402 -0.59063703
1.5153043 -8.1633959 -0.75680733
2.690757 -8.1156244 -0.98975861
1.5035031 -8.1233902 -1.1576174
2.6898522 -8.1082029 -1.4909787
1.4823717 -8.071866 -2.3386402
2.6863201 -8.0881853 -1.9439515
1.4699557 -8.0435801 -2.8003008
2.1696498 -6.481463 -2.7363751
0.94055557 -5.2397389 -2.796622
1.8669636 -5.5592113 -2.7133672
0.89992011 -5.0582786 -3.0600252
0.21010074 -1.1910943 -0.88801891
0.16609874 -0.96240187 -0.88158762
0.291437 -0.84035963 -0.88807929
0.13345911 -0.78924382 -0.88474959
0.24008442 -0.68342179 -0.8793999
0.11171577 -0.67091352 -0.87846196
6.8788776 -20.881226 4.2348909
4.2861834 -13.044584 1.6719311
4.2625132 -12.987848 0.94863725
17.429384 -95.705086 4.5348964
2.7839539 -8.495472 0.20675015
2.6778767 -14.708117 0
2.6720483 -8.163928 -0.19862756
1.4864565 -8.1667471 -0.385479
2.6611028 -8.1353168 -0.59011906
1.4831504 -8.1566477 -0.75566792
2.6572556 -8.1188154 -0.98889261
1.4715146 -8.1166668 -1.1558756
2.6533296 -8.1020918 -1.487958
1.4532015 -8.0796089 -2.3393281
2.6529641 -8.0914936 -1.9422772
1.4392172 -8.0419321 -2.7978616
2.149847 -6.5051589 -2.742908
0.9198187 -5.2344437 -2.7919474
1.8484613 -5.5749431 -2.717587
0.8813746 -5.0615435 -3.0600252
0.20620091 -1.1958226 -0.89103425
0.16299896 -0.96663362 -0.88500464
0.28665155 -0.83650851 -0.88267523
0.13120975 -0.7945953 -0.89042109
0.23694615 -0.68288368 -0.87743264
0.10983188 -0.6757232 -0.88450634
6.8553586 -21.056824 4.2656746
16.592911 -92.857399 14.765945
4.2329545 -13.035865 1.6689018
5.5951009 -31.334375 3.0391166
4.2502551 -13.104653 0.95609868
17.051327 -95.519501 4.5232506
2.753511 -8.502759 0.20669211
2.6405628 -14.796132 0
2.6373756 -8.1541815 -0.19816333
1.4579402 -8.1718864 -0.385479
2.6303852 -8.1374369 -0.5896011
1.4537967 -8.1568718 -0.75521213
2.6288996 -8.1280413 -0.98889261
1.4444703 -8.1290665 -1.1569207
2.6235139 -8.1066189 -1.4870948
1.4233234 -8.0751638 -2.3365765
2.6201923 -8.0867968 -1.9389284
1.409914 -8.0399218 -2.7954223
2.132894 -6.5302587 -2.7503743
0.90266311 -5.2441568 -2.7954535
1.8332305 -5.5942822 -2.7239168
0.87088919 -5.106863 -3.0857399
0.20169769 -1.1945682 -0.88952661
0.33803481 -1.0109203 -0.86365008
0.16050015 -0.97260153 -0.89013016
0.28372985 -0.83750403 -0.88267523
0.12920046 -0.799896 -0.89609253
0.23354638 -0.68079305 -0.87349796
0.10679475 -0.67171443 -0.87846196
6.8547621 -21.307285 4.3116136
16.248657 -92.8004 14.747766
4.186666 -13.048198 1.6685988
5.4449601 -31.120829 3.0165184
4.2562718 -13.280899 0.96789807
16.715647 -95.566147 4.5226684
2.7200024 -8.5004187 0.20640199
2.6088963 -8.1633377 -0.19816333
1.4294062 -8.1769257 -0.385479
2.6019645 -8.1465683 -0.5896011
1.4231772 -8.1496344 -0.75407273
2.5967283 -8.1253424 -0.98744941
1.4152379 -8.1291809 -1.1562239
2.5899453 -8.0993099 -1.484074
1.3963522 -8.0871897 -2.3386402
2.5882297 -8.0842905 -1.9361378
1.3818408 -8.0447941 -2.7954223
2.1150789 -6.5531116 -2.7569072
0.88435215 -5.2472758 -2.7954535
1.8157893 -5.6071148 -2.7270815
0.54222101 -3.2423761 -1.9504447
0.19784753 -1.197233 -0.89103425
0.33511049 -1.013912 -0.8652553
0.15710416 -0.9731558 -0.89013016
0.28024831 -0.83684748 -0.8808738
0.12665695 -0.80195892 -0.89798307
0.23066631 -0.6801455 -0.87153059
0.10467018 -0.67354649 -0.88047671
6.8547301 -21.565012 4.358973
15.796058 -92.106773 14.62864
4.1673565 -13.145523 1.6792017
5.0325127 -29.366173 2.8445332
4.3213711 -13.647544 0.99357909
16.362141 -95.508217 4.5171947
2.6895595 -8.5074778 0.20634395
2.7307417 -15.945267 0
2.5758655 -8.1580963 -0.19781518
1.4004339 -8.1794043 -0.38536257
2.570507 -8.1460896 -0.58891052
1.394302 -8.1520977 -0.7538448
2.5631111 -8.1177835 -0.98542887
1.385607 -8.12675 -1.1551789
2.5609157 -8.1059542 -1.4836426
1.3665138 -8.0825338 -2.3358889
2.5570519 -8.0839834 -1.9339052
1.352968 -8.0449057 -2.7937961
2.0950136 -6.5692925 -2.7606404
0.86603028 -5.2503309 -2.7954535
1.801048 -5.6285281 -2.7344666
0.54468524 -3.3288953 -2.0018737
0.19460931 -1.2038244 -0.89555728
0.3327696 -1.0187159 -0.8684659
0.15398577 -0.97550184 -0.89183867
0.12288173 -0.7959258 -0.89042109
0.2287879 -0.6824069 -0.87349796
0.10188705 -0.67097938 -0.87644708
4.1323638 -13.162685 2.6549761
15.484263 -92.21981 14.637922
4.2119799 -13.448888 1.7161604
4.9320335 -29.395836 2.8457227
4.2751956 -13.667305 0.99392617
16.027828 -95.559822 4.5169616
2.6546266 -8.5001163 0.20593776
2.5443931 -8.1574955 -0.19758306
1.3694007 -8.1694641 -0.38466379
2.5383415 -8.1431084 -0.58804721
1.364606 -8.1495495 -0.75316113
2.5317986 -8.1171989 -0.98427427
1.3568238 -8.1290941 -1.1548305
2.5304017 -8.1077919 -1.4823478
1.3371172 -8.080142 -2.3338253
2.5288179 -8.0928593 -1.9339052
1.3233447 -8.0402479 -2.7905438
2.0734651 -6.5809889 -2.762507
0.84734696 -5.2511401 -2.7942848
1.7827581 -5.639102 -2.7365763
0.18887022 -1.1946443 -0.88801891
0.3298054 -1.0216933 -0.87007123
0.15057971 -0.97603333 -0.89183867
0.12081705 -0.80120516 -0.89609253
0.22591242 -0.68173927 -0.87153059
0.099754848 -0.67279589 -0.87846196
4.0900302 -13.188753 2.6573443
15.195097 -92.473152 14.669639
4.2376575 -13.698198 1.7461517
5.0357461 -30.670246 2.9675157
4.2900777 -13.884674 1.0086753
14.870338 -90.595375 4.2797356
2.6278889 -8.5188828 0.20616987
2.5151663 -8.1639395 -0.19752505
1.3400686 -8.1692657 -0.38443086
2.5076973 -8.1447687 -0.5875293
1.3369542 -8.1591768 -0.75361693
2.502717 -8.1236153 -0.98398572
1.3272448 -8.1264515 -1.1537853
2.4984543 -8.1048107 -1.4801902
1.3081372 -8.0800142 -2.3324497
2.496237 -8.0876684 -1.9305565
1.2948956 -8.0424833 -2.7897305
2.0546212 -6.6014724 -2.7681067
0.8293553 -5.256249 -2.7954535
1.767123 -5.6582699 -2.7429061
0.18499927 -1.1972678 -0.88952661
0.32799938 -1.0283111 -0.87488711
0.14877339 -0.98738593 -0.90208966
0.11755464 -0.79838347 -0.89231157
0.22353134 -0.68252373 -0.87153059
0.098022155 -0.67753708 -0.88450634
4.0087204 -13.087948 2.6341381
15.010164 -93.384018 14.805783
4.1883645 -13.708159 1.7455457
4.9326005 -30.712206 2.9698944
4.267077 -13.983049 1.0147487
14.515218 -90.405075 4.2683225
2.5988657 -8.5303955 0.20622791
10.921484 -68.094635 0
2.483012 -8.1607141 -0.1972349
1.3111495 -8.1714287 -0.38431442
2.4756205 -8.1415434 -0.58666605
1.3068918 -8.1539602 -0.7527054
2.4700036 -8.1180477 -0.98225379
1.2973107 -8.1212559 -1.1523919
2.4687121 -8.1087713 -1.4793271
1.2791743 -8.0797825 -2.331074
2.4679906 -8.0963326 -1.9305565
1.2675482 -8.0516253 -2.7913566
2.0356593 -6.6219034 -2.7737062
0.81268162 -5.2700338 -2.8012967
1.7473613 -5.6644034 -2.7429061
0.1808189 -1.1979063 -0.88952661
0.32440791 -1.0294498 -0.87488711
0.1437621 -0.97706085 -0.89183867
0.26693663 -0.83573055 -0.87546962
0.11454022 -0.79716891 -0.89042109
0.22307473 -0.68916148 -0.8793999
0.094855107 -0.67200947 -0.87644708
3.9877317 -13.191837 2.6521347
14.712219 -93.721451 14.850649
4.1811042 -13.865966 1.7637222
4.8277106 -30.779251 2.9746521
4.2834387 -14.223057 1.0310596
14.641726 -93.378792 4.4062099
2.5581737 -8.5139837 0.20558961
1.3505288 -8.6096258 0
2.4509268 -8.1625805 -0.19706082
1.2815709 -8.178648 -0.38443086
2.4443283 -8.1457844 -0.58632076
1.2744218 -8.1515388 -0.75202173
2.4373736 -8.1175327 -0.98109919
1.2664984 -8.128624 -1.1527404
2.437557 -8.1130486 -1.4784639
1.2485068 -8.0870094 -2.3317618
2.4333806 -8.0889902 -1.9266497
1.2351911 -8.0470858 -2.7881045
2.0133979 -6.6359777 -2.7765062
0.79080302 -5.262187 -2.7954535
1.7279106 -5.6751056 -2.7450159
0.17984147 -1.1963856 -0.70457727
0.17650373 -1.2005653 -0.89103425
0.32005826 -1.0288036 -0.87328184
0.14077048 -0.98302782 -0.89696419
0.26636094 -0.84500659 -0.88447654
0.11081669 -0.79274005 -0.88474959
0.21947458 -0.68707848 -0.87546527
0.092976369 -0.67675412 -0.88249159
14.337799 -93.464622 14.801915
4.2063656 -14.127817 1.7952281
4.7096896 -30.727037 2.9679914
4.2664824 -14.347881 1.0390415
4.3218741 -14.552606 0.3516435
1.3181987 -8.5994606 0
2.4195745 -8.1615009 -0.19682871
1.2507564 -8.1682587 -0.38373214
2.4123337 -8.142313 -0.5854575
1.2470075 -8.1532593 -0.7517938
2.4054904 -8.1140881 -0.97965598
1.2384188 -8.1254368 -1.1516951
2.4071193 -8.1144266 -1.4771694
1.2209663 -8.0863533 -2.3303864
2.4009624 -8.0834198 -1.9233009
1.2091994 -8.0558128 -2.7897305
1.9962198 -6.6629581 -2.7849057
0.78327417 -5.3325686 -2.831682
1.7080904 -5.6811023 -2.7450159
0.17618041 -1.1990973 -0.70586294
0.17224231 -1.1991695 -0.88952661
0.31703308 -1.0317448 -0.87488711
0.13775755 -0.98529738 -0.89867264
0.26199263 -0.84092575 -0.87907249
0.10840248 -0.79472482 -0.88664013
0.21766624 -0.68927133 -0.87743264
0.090803333 -0.67854226 -0.88450634
4.4579258 -15.126495 3.0357471
13.967914 -93.223419 14.755889
4.197639 -14.280498 1.8127987
12.922509 -86.348015 8.3421087
4.2557354 -14.496688 1.0487586
12.972826 -86.684334 4.0858321
4.3976927 -14.999289 0.36208838
1.2722834 -8.4976912 0
2.3917739 -8.1722965 -0.19688675
1.2226049 -8.1750441 -0.38384858
2.3838971 -8.1506844 -0.5854575
1.2185397 -8.1575623 -0.7517938
2.3736615 -8.1105204 -0.97821283
1.2096845 -8.1272612 -1.1513468
2.3773942 -8.1180534 -1.4763062
1.1927323 -8.0905666 -2.3303864
2.3713586 -8.0870743 -1.9221846
1.180046 -8.052968 -2.7872913
1.9729495 -6.6698856 -2.7849057
1.6882491 -5.6870303 -2.7450159
0.17139395 -1.195459 -0.70329154
0.16832773 -1.2017388 -0.89103425
0.31342968 -1.0328451 -0.87488711
0.13455877 -0.98758137 -0.90038121
0.26008725 -0.84514511 -0.88267523
0.10499904 -0.79023123 -0.88096863
0.21572506 -0.69149739 -0.8793999
0.088434227 -0.67885506 -0.88450634
4.3754749 -15.030426 3.0134881
4.1918001 -14.437321 1.8309752
12.714631 -86.821564 8.383975
4.4487901 -15.34185 1.1089704
12.702644 -86.84549 4.0914226
4.4112296 -15.232242 0.36736882
1.2437357 -8.4993887 0
2.3619165 -8.1653652 -0.19653857
1.1947677 -8.1741114 -0.38361564
2.353426 -8.1413622 -0.58424896
1.1904048 -8.1541681 -0.7511102
2.3467882 -8.1131668 -0.9776355
1.1830825 -8.1336784 -1.1516951
2.3511937 -8.1231174 -1.4758748
1.1665801 -8.0992336 -2.3317618
2.3432243 -8.0851231 -1.919952
1.1506603 -8.0381145 -2.7807868
1.953289 -6.6805024 -2.7867723
1.6754878 -5.7097015 -2.7534556
0.16684306 -1.1917728 -0.70072007
0.16454555 -1.202263 -0.89103425
0.31240681 -1.0411613 -0.88130826
0.13098414 -0.98437965 -0.89696419
0.25677291 -0.84434623 -0.8808738
0.1037427 -0.80029541 -0.89231157
0.21447471 -0.69511551 -0.88333458
0.086121 -0.67766058 -0.88249159
4.2985649 -14.960679 2.9964387
12.835301 -89.832108 14.204733
4.1728435 -14.561595 1.8449104
4.2812533 -29.990446 2.8923466
4.3732386 -15.280562 1.1034178
4.3635306 -15.266771 0.36783305
1.214765 -8.5086288 0
2.3299141 -8.1667585 -0.19636449
1.1655238 -8.1732874 -0.38338274
2.3235707 -8.1499329 -0.58424896
1.1605327 -8.1484137 -0.7501986
2.3163545 -8.1193266 -0.9773469
1.1539894 -8.1328564 -1.1509985
2.319375 -8.1245766 -1.47458
1.1369669 -8.0937366 -2.3290105
2.313575 -8.0936565 -1.919952
1.1222689 -8.0397406 -2.7799733
1.931365 -6.6965294 -2.7905054
0.19494741 -1.4160661 -0.73742938
1.6532872 -5.7114515 -2.7513459
0.16039865 -1.1753483 -0.69043428
0.16014391 -1.2028568 -0.89103425
0.30694127 -1.0367908 -0.87649244
0.12760438 -0.9866637 -0.89867264
0.25281501 -0.8419205 -0.87727106
0.10080878 -0.80067021 -0.89231157
0.2105571 -0.69147617 -0.87743264
0.083986118 -0.680911 -0.88652122
4.2450414 -14.981055 2.9973857
12.509028 -89.900574 14.208215
4.3530879 -15.403019 1.949728
4.1747289 -30.030584 2.8947253
4.3090696 -15.267688 1.1013354
4.5226045 -16.045202 0.38622761
1.1811658 -8.4956894 0
2.2992883 -8.1728373 -0.19630645
1.1352166 -8.1750317 -0.3832663
2.2916565 -8.1511927 -0.583731
1.1313422 -8.1575451 -0.7506544
2.2859068 -8.125371 -0.97705823
1.1234969 -8.1321268 -1.1503018
2.2869093 -8.1235428 -1.472854
1.1076192 -8.1002302 -2.3296983
2.281909 -8.095046 -1.9182777
1.090571 -8.027401 -2.7742817
1.9055372 -6.6991024 -2.7886388
0.18772866 -1.4014342 -0.7292487
1.6348355 -5.7261891 -2.7555656
0.15831071 -1.1929363 -0.70072007
0.1554825 -1.2014575 -0.88952661
0.30259678 -1.0360707 -0.87488711
0.12265268 -0.97625577 -0.88842165
0.25172123 -0.8494826 -0.88447654
0.098066062 -0.80265892 -0.89420205
0.20892279 -0.69519377 -0.88136733
0.080812529 -0.67533302 -0.87846196
4.241663 -15.170716 3.0324318
12.196136 -89.951027 14.209375
4.2766185 -15.336848 1.939428
11.747695 -86.756783 8.3649454
4.2597661 -15.29705 1.1023766
15.018792 -110.91862 5.2181587
4.4719286 -16.080154 0.38669181
1.1504984 -8.4923286 0
2.2660615 -8.1639566 -0.19590026
1.1063392 -8.1764679 -0.3831498
2.259186 -8.1447239 -0.58269513
1.101862 -8.1540422 -0.74997079
2.2528758 -8.1165524 -0.97503769
1.0944445 -8.1310911 -1.149605
2.2552402 -8.1196136 -1.4706961
1.0774375 -8.0897522 -2.3255713
2.2503698 -8.0912247 -1.9154872
1.0622343 -8.0288162 -2.7734687
1.8846518 -6.714644 -2.792372
0.18311757 -1.404273 -0.73041737
1.6185309 -5.7449484 -2.7618957
0.15387543 -1.1913548 -0.6994344
0.15128767 -1.2019929 -0.88952661
0.30005032 -1.0408008 -0.87809771
0.11946026 -0.97849029 -0.89013016
0.24973974 -0.85368019 -0.88807929
0.095824309 -0.8078717 -0.8998735
0.20471245 -0.6900115 -0.87349796
0.079111516 -0.68149459 -0.88652122
4.1971722 -15.216191 3.0385885
11.889508 -90.049362 14.21827
4.2217398 -15.3469 1.9388222
14.258008 -108.13701 10.422343
4.7219467 -17.18755 1.2377228
4.425034 -16.129408 0.38750419
1.1198688 -8.4888582 0
2.23755 -8.1718168 -0.19590026
1.0777912 -8.1802797 -0.3831498
2.2300825 -8.1501551 -0.58252245
1.0730681 -8.1553707 -0.74974287
2.2238734 -8.1219721 -0.97474915
1.0654131 -8.1299524 -1.1489083
2.2242782 -8.117938 -1.4689701
1.0473427 -8.0791616 -2.3214443
2.2214668 -8.0966797 -1.9149289
1.0320935 -8.0160608 -2.7677772
1.8618217 -6.7234163 -2.7933052
0.17821462 -1.4049037 -0.73041737
1.5996834 -5.75493 -2.7640054
0.14892755 -1.185501 -0.69557714
0.14756672 -1.2064736 -0.89254194
0.29588589 -1.04 -0.87649244
0.11541464 -0.97346216 -0.88500464
0.24578464 -0.85121924 -0.88447654
0.092460096 -0.80332398 -0.89420205
0.20186216 -0.6892435 -0.87153059
0.076414034 -0.67882371 -0.88249159
4.177331 -15.384763 1.9418515
4.7132506 -17.381229 1.2505631
10.993821 -85.565315 4.0214305
4.4159679 -16.308033 0.39145002
1.0913943 -8.4900446 0
2.2105601 -8.1739807 -0.19578421
1.0503412 -8.1813326 -0.38303337
2.2025132 -8.1498985 -0.58200449
1.046334 -8.1613541 -0.74997079
2.1963995 -8.1217279 -0.97388309
1.0387602 -8.1358967 -1.1492566
2.195544 -8.1130009 -1.4668123
1.0208458 -8.0849752 -2.3221321
2.1915526 -8.0871563 -1.9110221
1.0060924 -8.0241299 -2.769403
1.8425285 -6.7359433 -2.7961049
1.5858037 -5.7752242 -2.77139
0.14576264 -1.1923745 -0.6994344
0.14284323 -1.1990095 -0.88651121
0.29314092 -1.0427679 -0.87809771
0.11317216 -0.98107463 -0.89183867
0.24392316 -0.85536033 -0.88807929
0.090640344 -0.81011581 -0.90176404
0.19969584 -0.68987423 -0.87153059
0.074744418 -0.68347621 -0.88853598
4.6059546 -17.199411 2.1693602
4.7215276 -17.655359 1.2691299
10.176296 -81.449989 3.826246
4.4293408 -16.58654 0.39777496
1.0620613 -8.4962835 0
2.1773643 -8.1699543 -0.19549409
1.020542 -8.1750374 -0.38256752
2.1719849 -8.1555061 -0.58183187
1.0175319 -8.1624851 -0.74974287
2.1646967 -8.1225252 -0.97301722
1.0097457 -8.1345587 -1.1485598
2.163888 -8.1138563 -1.4655176
0.99086529 -8.0741758 -2.3180053
2.1625266 -8.0974884 -1.9115803
0.97693604 -8.0182076 -2.766151
1.8184323 -6.7448902 -2.7970383
0.14919434 -1.2414776 -0.64276731
1.5640327 -5.7788105 -2.7703352
0.141103 -1.1886168 -0.69686294
0.13890243 -1.203487 -0.88952661
0.28931701 -1.0438353 -0.87809771
0.10937817 -0.9796685 -0.89013016
0.23903394 -0.84953845 -0.8808738
0.087670512 -0.81044263 -0.90176404
0.19888745 -0.69652683 -0.8793999
0.072089791 -0.68227303 -0.88652122
4.6125689 -17.480108 2.2026837
10.515774 -86.751755 8.3494835
4.7248173 -17.930584 1.2876966
11.069279 -91.319038 4.2881207
4.4247599 -16.828213 0.40317145
1.0297124 -8.4901915 0
2.1461344 -8.1730452 -0.19537802
0.99086583 -8.1812038 -0.38268402
2.1370089 -8.1441145 -0.58045065
0.98588502 -8.1638613 -0.749515
2.1336486 -8.1256018 -0.97243994
0.97820902 -8.1359177 -1.1482115
2.1310019 -8.1098261 -1.46336
0.9598555 -8.0779209 -2.3180053
2.1315916 -8.100647 -1.910464
0.94696987 -8.0289431 -2.7685902
1.7942953 -6.7537513 -2.7979715
0.14292064 -1.2288671 -0.6357553
1.543427 -5.786694 -2.77139
0.13701823 -1.1934109 -0.6994344
0.1334133 -1.1960818 -0.88349587
0.28599948 -1.046736 -0.87970304
0.10599662 -0.98371154 -0.89354718
0.23670836 -0.85378772 -0.88447654
0.084394097 -0.80914563 -0.8998735
0.19621152 -0.69728541 -0.8793999
0.069444999 -0.68105966 -0.88450634
10.431929 -88.516533 13.951782
4.6027827 -17.693031 2.2275248
10.187882 -86.575371 8.3290253
4.7123904 -18.14007 1.3015783
10.163069 -86.364517 4.0536895
1.0009449 -8.5011826 0
2.1144571 -8.1683903 -0.19508789
0.96085328 -8.1722088 -0.38210168
2.1085677 -8.1515245 -0.58045065
0.95851773 -8.1646137 -0.74928713
2.1034029 -8.1257877 -0.97157401
0.95093733 -8.1366587 -1.1478633
2.1008258 -8.1100645 -1.4620655
0.93278772 -8.0786705 -2.3173172
2.0984011 -8.0891695 -1.9059989
0.91980278 -8.0273409 -2.766964
1.7712979 -6.7622166 -2.7989049
0.13738281 -1.2161549 -0.62874329
1.5209085 -5.7832794 -2.7671702
0.13212782 -1.1853334 -0.69429147
0.1296564 -1.1985008 -0.88500357
0.28234395 -1.0477279 -0.87970304
0.10291837 -0.98587334 -0.89525563
0.2348029 -0.85790873 -0.88807929
0.081868909 -0.81104922 -0.90176404
0.19305867 -0.69496351 -0.87546527
0.067344256 -0.68424499 -0.88853598
10.134664 -88.655464 13.968026
4.6643391 -18.189734 2.2881131
9.8861799 -86.615356 8.3295021
9.8793764 -86.555786 4.0610266
0.97041506 -8.4971733 0
2.0853124 -8.1732998 -0.19502987
0.9320389 -8.1730328 -0.38198525
2.0776334 -8.149169 -0.57976002
0.92973107 -8.1654358 -0.7490592
2.0731821 -8.1258631 -0.97070813
0.92225111 -8.1374683 -1.1475148
2.069454 -8.1054192 -1.4599075
0.90431559 -8.0794897 -2.3166296
2.0707564 -8.0988064 -1.9065572
0.89229703 -8.035202 -2.7685902
1.7500054 -6.7773399 -2.8026378
0.13266478 -1.2122322 -0.62640589
1.5041305 -5.8017154 -2.7735
0.12844063 -1.1900517 -0.69686294
0.1252688 -1.1969622 -0.88349587
0.27918229 -1.0505581 -0.88130826
0.099476404 -0.98622662 -0.89525563
0.22997595 -0.85203516 -0.8808738
0.078426085 -0.80481523 -0.89420205
0.19146074 -0.69860476 -0.8793999
0.064421915 -0.67857981 -0.88047671
4.6265182 -18.294115 2.2993219
9.5953627 -86.477783 8.3133259
9.5527058 -86.230644 4.0442562
0.94278169 -8.5053139 0
2.0571811 -8.1701164 -0.19479775
0.90547907 -8.1810427 -0.38221815
2.0520217 -8.1556559 -0.57976002
0.90210289 -8.1635246 -0.7486034
2.0470366 -8.1299276 -0.97041941
0.89472145 -8.13556 -1.146818
2.0403657 -8.0975552 -1.4573184
0.87725925 -8.0800533 -2.3159416
2.0429149 -8.0958204 -1.9043247
0.86514151 -8.0334158 -2.766964
1.7309997 -6.7917933 -2.8063712
0.1297877 -1.2236563 -0.6322493
1.4836448 -5.7976298 -2.7692802
0.12471209 -1.1926039 -0.69814861
0.12091073 -1.1913974 -0.87897289
0.27391446 -1.0440202 -0.87488711
0.096205212 -0.98471731 -0.89354718
0.22895794 -0.85948712 -0.88807929
0.076192684 -0.80831599 -0.89798307
0.1888552 -0.69771582 -0.87743264
0.062804729 -0.68467659 -0.88853598
4.572237 -18.348677 2.3041689
10.406211 -97.031364 9.3245411
28.009649 -112.51828 8.0650654
9.2218285 -85.985359 4.0312133
0.91228849 -8.5010958 0
2.0254161 -8.1703243 -0.19462368
0.87691641 -8.1841536 -0.38221815
2.0185137 -8.1485987 -0.57872415
0.87254488 -8.1567211 -0.74769187
2.0148323 -8.1277351 -0.96926481
0.86631757 -8.1386337 -1.146818
2.0094857 -8.1001997 -1.4564553
0.84829813 -8.0758963 -2.3138781
2.0108755 -8.0937948 -1.9020921
0.83782703 -8.0434408 -2.769403
1.707791 -6.8048401 -2.8091707
0.12551555 -1.2241019 -0.6322493
1.4634951 -5.8074241 -2.77139
0.12097054 -1.1972992 -0.70072007
0.11635949 -1.1898464 -0.87746519
0.27105552 -1.0487256 -0.87809771
0.092926852 -0.98869848 -0.89696419
0.2250637 -0.85693091 -0.88447654
0.073087819 -0.80696011 -0.89609253
0.18589221 -0.69691461 -0.87546527
0.059924848 -0.68047756 -0.88249159
9.3784046 -90.268448 14.206281
7.3388138 -29.88888 3.7528327
10.085926 -97.245323 9.3416681
27.617311 -112.61778 8.065239
16.994862 -69.410355 1.6582952
0.88183635 -8.496768 0
1.993322 -8.1627769 -0.19427551
0.84757298 -8.1797132 -0.38186881
1.9894654 -8.1531715 -0.57855147
0.84483379 -8.1671476 -0.74837559
1.9846795 -8.1274824 -0.96839893
0.83714479 -8.1342201 -1.1457729
1.9788572 -8.0975971 -1.4547291
0.81937665 -8.0716333 -2.3118148
1.9797105 -8.0889311 -1.8993015
0.80832905 -8.0322037 -2.7645247
1.6845847 -6.8130107 -2.8101041
0.12166859 -1.228932 -0.63458663
1.4448562 -5.8190956 -2.774555
0.11617955 -1.1913112 -0.69686294
0.11202264 -1.1882596 -0.87595755
0.2669149 -1.0478095 -0.87649244
0.089634463 -0.99083489 -0.89867264
0.22295202 -0.86106455 -0.88807929
0.070134528 -0.8055802 -0.89420205
0.18385765 -0.69904935 -0.87743264
0.057785533 -0.68363315 -0.88652122
7.2035594 -29.809446 3.7395031
9.7497406 -97.484695 9.3611746
9.0696831 -90.683472 4.2484083
16.723539 -69.455658 1.6578308
0.8514331 -8.5074053 0
1.9633906 -8.1700287 -0.19427551
0.81683826 -8.1753092 -0.38151941
1.9584029 -8.1555586 -0.57820618
0.81297612 -8.1653757 -0.7479198
1.9537153 -8.1298733 -0.9678216
0.80566239 -8.1349115 -1.1454247
1.9480118 -8.1000071 -1.453866
0.7886107 -8.0771122 -2.3125024
1.950621 -8.0985012 -1.8998597
0.77725464 -8.0328941 -2.7637115
1.6639968 -6.8371654 -2.8175704
0.11653913 -1.2249891 -0.6322493
1.421901 -5.8177476 -2.77139
0.11179983 -1.1938835 -0.69814861
0.10693364 -1.1827214 -0.87143451
0.26542982 -1.0580689 -0.88451886
0.0862865 -0.99662805 -0.90379822
0.2200782 -0.86359262 -0.88988072
0.067430124 -0.81073552 -0.8998735
0.1819592 -0.70273322 -0.88136733
0.055053961 -0.68088895 -0.88249159
8.6932592 -89.930061 14.14285
7.0322242 -29.551958 3.7040591
8.7824516 -90.85305 8.7212849
26.677519 -112.25203 8.0251551
8.7782621 -90.975594 4.2606368
16.457342 -69.359962 1.6542332
0.82125241 -8.5053501 0
1.936287 -8.1764946 -0.19427551
0.78830212 -8.1781101 -0.38151941
1.9296224 -8.1547279 -0.57768822
0.78541869 -8.1630697 -0.747464
1.925599 -8.1314745 -0.96724433
0.77962208 -8.1473961 -1.146818
1.917729 -8.0920477 -1.4512769
0.7609219 -8.0701113 -2.309751
1.9215007 -8.0954409 -1.8976271
0.74995482 -8.0283661 -2.7612722
1.644024 -6.8539214 -2.8222368
0.11287149 -1.2297711 -0.63458663
1.4036645 -5.8268375 -2.7735
0.10840522 -1.2006551 -0.7020058
0.32183555 -1.3202304 -0.88937247
0.10287356 -1.1790783 -0.86841917
0.26145443 -1.0570841 -0.88291359
0.083155081 -0.99689412 -0.90379822
0.21721321 -0.86431772 -0.88988072
0.064508855 -0.80605018 -0.89420205
0.17858407 -0.69882303 -0.87546527
0.052795745 -0.68106776 -0.88249159
8.5542192 -91.6651 14.411272
6.9285212 -29.550955 3.7010298
9.071085 -97.205261 9.3283472
7.1130943 -30.385565 2.1688344
10.478456 -112.50272 5.2675371
16.235214 -69.448235 1.6550456
0.79419988 -8.5204725 0
1.9057505 -8.1682673 -0.19392733
0.76025552 -8.1707325 -0.38105354
1.9014359 -8.1562243 -0.57734293
0.75834459 -8.1656294 -0.747464
1.8969288 -8.1305609 -0.96637845
0.7516923 -8.1400757 -1.1454247
1.8903235 -8.0959635 -1.4508452
0.73415631 -8.0725899 -2.309751
1.8929777 -8.0946512 -1.8959527
0.72353894 -8.0331631 -2.7620852
1.6212865 -6.8593359 -2.8222368
0.10803156 -1.2213315 -0.62991196
1.3843343 -5.8314605 -2.7735
0.10442311 -1.2010078 -0.7020058
0.31501055 -1.3112062 -0.88240248
0.099125393 -1.1814007 -0.86992687
0.25794759 -1.0579454 -0.88291359
0.080130115 -1.0008038 -0.90721518
0.21434583 -0.86503321 -0.88988072
0.061835542 -0.80625963 -0.89420205
0.1766496 -0.7009055 -0.87743264
0.050948888 -0.68714488 -0.89055085
7.8775253 -87.721474 13.786628
6.7862506 -29.405701 3.6798236
7.6487045 -85.339966 8.1865377
7.0204301 -30.468536 2.1729989
10.104628 -112.75004 5.2774363
15.989892 -69.492294 1.6547554
0.76222622 -8.498292 0
1.8769188 -8.180069 -0.1940434
0.73150772 -8.1708488 -0.3809371
1.8698549 -8.1558475 -0.57682502
0.73005754 -8.1707067 -0.74769187
1.8654478 -8.1301985 -0.96551251
0.72305506 -8.1401834 -1.1450763
1.8611895 -8.105238 -1.4512769
0.70618194 -8.0774984 -2.3104391
1.8643904 -8.1062832 -1.897069
0.69569689 -8.0379963 -2.7628984
1.6003433 -6.8833022 -2.8297031
0.10413291 -1.226106 -0.6322493
1.3655337 -5.8475294 -2.778775
0.10092545 -1.209913 -0.70714873
0.31212917 -1.3204263 -0.88797849
0.094180405 -1.1738024 -0.86389619
0.25406829 -1.0588837 -0.88291359
0.075925499 -0.99381006 -0.90038121
0.21049094 -0.86241096 -0.88627797
0.058993295 -0.80811274 -0.89609253
0.17483628 -0.70453912 -0.88136733
0.048430037 -0.68732697 -0.89055085
7.5638442 -87.662315 13.773092
7.1085515 -31.299801 3.9139972
7.3409476 -85.25209 8.1755953
6.8737593 -30.315308 2.160332
9.707139 -112.73983 5.2753396
16.528883 -72.999336 1.7369217
0.73298502 -8.5058823 0
1.8444955 -8.169507 -0.19363721
0.70383495 -8.1833057 -0.38140294
1.8380766 -8.147727 -0.57578909
0.70110762 -8.1682444 -0.74723619
1.836509 -8.1342382 -0.96522385
0.69442648 -8.140192 -1.1447279
1.8307117 -8.1020784 -1.4495506
0.67758125 -8.0751238 -2.3090632
1.8328511 -8.0984831 -1.8937203
0.66763473 -8.0403757 -2.7628984
1.5794156 -6.9024105 -2.8353028
0.098977685 -1.2154465 -0.62640589
1.3481658 -5.8655124 -2.7851048
0.096036024 -1.2017077 -0.7020058
0.31036571 -1.3336295 -0.89634252
0.090378769 -1.1781013 -0.86691153
0.25170785 -1.0653559 -0.88772947
0.072838888 -0.99953091 -0.90550667
0.2058347 -0.8564043 -0.87907249
0.056279656 -0.80994612 -0.89798307
0.17162956 -0.70215166 -0.87743264
0.046122938 -0.68896896 -0.89256561
7.2618032 -87.923302 13.809835
7.0078473 -31.388613 3.9218733
7.0096331 -85.05024 8.1537104
6.787569 -30.452269 2.1683137
9.2883253 -112.70746 5.2721953
6.7753062 -30.472351 0.7239446
0.70282871 -8.5209694 0
1.8150829 -8.1786528 -0.19369525
0.67362666 -8.183342 -0.38128647
1.8076608 -8.1519747 -0.57561648
0.66973865 -8.1708765 -0.74723619
1.8039896 -8.1287947 -0.96378064
0.66256452 -8.1353951 -1.1436827
1.7993996 -8.1015215 -1.4482559
0.64695227 -8.0824585 -2.3104391
1.8042163 -8.1099033 -1.8948365
0.63619941 -8.0358086 -2.7604592
1.5622643 -6.9443531 -2.8502352
0.094476476 -1.2180214 -0.62757462
1.3266586 -5.8704143 -2.7851048
0.091579244 -1.2042058 -0.70329154
0.30127093 -1.31656 -0.88379645
0.085995026 -1.180429 -0.86841917
0.24648465 -1.0606745 -0.88291359
0.068879798 -0.99798214 -0.90379822
0.20375885 -0.86224508 -0.88447654
0.053270567 -0.81178892 -0.8998735
0.16893223 -0.70280546 -0.87743264
0.04351043 -0.68765593 -0.89055085
6.9373307 -87.726509 13.775025
22.448185 -102.19698 12.768962
6.6866827 -84.744217 8.1220732
6.6000199 -30.105494 2.1419387
8.8979883 -112.77902 5.2740588
6.681169 -30.526392 0.72469902
0.67406148 -8.5358334 0
1.7827866 -8.1678457 -0.19328903
0.64447689 -8.178174 -0.3809371
1.7797263 -8.1606712 -0.57578909
0.64244491 -8.1705704 -0.74700826
1.7729523 -8.1229115 -0.96233743
0.63519877 -8.1326113 -1.1429859
1.7716355 -8.1101599 -1.4486876
0.62014639 -8.0845594 -2.3104391
1.7748531 -8.1113911 -1.8937203
0.60919201 -8.0331593 -2.7588329
1.5430343 -6.9724073 -2.8595681
0.09075518 -1.2227366 -0.62991196
1.3071448 -5.8794341 -2.7872148
0.088038616 -1.2109189 -0.70714873
0.29851395 -1.3256981 -0.88937247
0.082481809 -1.1866767 -0.87294221
0.24364555 -1.0652627 -0.88612419
0.065455385 -0.99638349 -0.90208966
0.20049936 -0.86122912 -0.88267523
0.050386529 -0.80869502 -0.89609253
0.1666007 -0.70336181 -0.87743264
0.0411098 -0.68780363 -0.89055085
6.6139488 -87.523605 13.739442
6.8954406 -31.931601 3.9836736
6.3837223 -84.672752 8.1130333
6.7477841 -31.300991 2.2254021
6.7581048 -89.640358 4.1905284
6.5840402 -30.593506 0.72574347
0.64557391 -8.5555849 0
1.7542646 -8.1740189 -0.19328903
0.61555219 -8.1753941 -0.38070419
1.7486111 -8.1546421 -0.57492584
0.61336303 -8.1653156 -0.7463246
1.7435436 -8.1241951 -0.96176016
0.5976336 -8.0113382 -1.1255678
1.7422794 -8.1114798 -1.4478245
0.5910483 -8.074688 -2.3069999
1.7444751 -8.1080084 -1.8914877
0.58114731 -8.0352373 -2.7588329
1.5231334 -6.9981456 -2.8679676
0.086486481 -1.2230459 -0.62991196
1.2885542 -5.8928165 -2.7914345
0.083954759 -1.213358 -0.7084344
0.29343152 -1.3247068 -0.88797849
0.077704258 -1.1770065 -0.86540383
0.2390738 -1.0623695 -0.88291359
0.061976962 -0.99660587 -0.90208966
0.19788507 -0.86361206 -0.88447654
0.047924057 -0.81539947 -0.90365446
0.16521618 -0.70844096 -0.88333458
0.038631979 -0.68646491 -0.88853598
6.3256068 -87.785118 13.776958
21.779539 -102.56483 12.795621
6.0995359 -84.853378 8.1282568
6.6302061 -31.285318 2.2226257
8.1077471 -112.80104 5.2723122
6.477726 -30.618748 0.72580147
0.61767155 -8.5852156 0
1.7252048 -8.1776485 -0.19323102
0.58736718 -8.1824741 -0.3809371
1.7191052 -8.1558161 -0.57458055
1.7131211 -8.1205139 -0.96060556
0.56232166 -7.9096608 -1.1109365
1.7108976 -8.1030569 -1.4452351
0.56285882 -8.0767021 -2.3069999
1.7156572 -8.1116648 -1.8909297
0.55309558 -8.0372171 -2.7588329
1.4938344 -6.9807415 -2.8586347
0.082216725 -1.2233404 -0.62991196
1.2679766 -5.8972788 -2.7914345
0.07999108 -1.217923 -0.71100587
0.28880563 -1.3257231 -0.88797849
0.073595263 -1.1772707 -0.86540383
0.23578332 -1.0650675 -0.88451886
0.058294021 -0.99317163 -0.89867264
0.19486929 -0.86429757 -0.88447654
0.045077492 -0.81556177 -0.90365446
0.1616863 -0.70450771 -0.87743264
0.036450114 -0.6910305 -0.89458048
6.0233622 -87.868263 13.786628
21.410233 -102.58678 12.788956
1.8267211 -26.693184 2.5540855
22.756025 -109.22493 7.7601895
7.7142887 -112.83363 5.2725449
6.3641911 -30.609364 0.72504717
0.57987797 -8.4725857 0
1.6946164 -8.1738319 -0.1929989
0.55812383 -8.174509 -0.38047126
1.6906257 -8.161767 -0.57458055
1.6837549 -8.1215811 -0.96002823
0.53188258 -7.8695846 -1.1050142
1.6816002 -8.1041574 -1.4443721
0.53482044 -8.0810156 -2.3076875
1.6868351 -8.1152172 -1.8903714
0.52442354 -8.0296621 -2.7555807
1.467545 -6.9768362 -2.8549018
0.077673823 -1.2192082 -0.62757462
1.2506713 -5.9171896 -2.7988191
0.075867899 -1.2203351 -0.7122916
0.28549299 -1.332808 -0.89216048
0.070050664 -1.1874754 -0.87294221
0.23247699 -1.0677557 -0.88612419
0.055113409 -0.99883693 -0.90379822
0.19337673 -0.87173659 -0.89168209
0.042072833 -0.81244618 -0.8998735
0.16026634 -0.70957708 -0.88333458
0.033838648 -0.68671787 -0.88853598
5.7076344 -87.750732 13.764969
21.054003 -102.67062 12.790167
1.7303128 -26.649731 2.5493279
22.323601 -109.05448 7.7424903
7.1395593 -110.07127 5.1422276
6.2778225 -30.731789 0.72742629
0.55401021 -8.5319376 0
1.6645755 -8.1723509 -0.19282483
0.52974683 -8.1788998 -0.38058776
1.6606313 -8.1602879 -0.57406259
0.50992727 -7.8930316 -0.72080141
1.6558914 -8.1298428 -0.96031696
0.50346375 -7.8565698 -1.1029241
1.6533012 -8.1099777 -1.4443721
0.50630987 -8.0780363 -2.3063118
1.656544 -8.1115065 -1.8881389
0.49653676 -8.0338039 -2.7563934
1.4450636 -6.9910007 -2.8586347
0.073545896 -1.2216783 -0.62874329
1.2290851 -5.9170823 -2.7967093
0.071486495 -1.2184519 -0.71100587
0.27997524 -1.3297368 -0.88937247
0.065586857 -1.1817386 -0.86841917
0.22834207 -1.0666876 -0.88451886
0.051804796 -1.0026691 -0.90721518
0.19033262 -0.8724063 -0.89168209
0.039309677 -0.8142224 -0.90176404
0.156764 -0.70561934 -0.87743264
0.031318944 -0.68387425 -0.88450634
5.4146371 -87.987068 13.799006
20.773899 -103.13271 12.838637
6.0483246 -98.569572 9.4361057
6.2923961 -31.304132 2.2191553
6.7447457 -109.92353 5.134192
6.118372 -30.493769 0.72127539
1.6365294 -8.1805611 -0.19288285
0.50073779 -8.1732206 -0.38023832
1.6316468 -8.1635885 -0.57388991
0.48207009 -7.8897929 -0.72034562
1.6255513 -8.1258326 -0.95916235
0.4763341 -7.8632216 -1.1036208
1.6240137 -8.1108713 -1.4435091
0.47796789 -8.0773554 -2.3056242
1.6272594 -8.1124601 -1.8870226
0.46849051 -8.0354872 -2.7563934
1.4211141 -6.9982748 -2.8595681
0.06916032 -1.2197208 -0.62757462
1.2111483 -5.9346595 -2.8030391
0.067005455 -1.214412 -0.7084344
0.27490714 -1.3286747 -0.88797849
0.061362263 -1.1799686 -0.86691153
0.22421749 -1.065604 -0.88291359
0.048304513 -1.0028439 -0.90721518
0.18765579 -0.87475902 -0.89348346
0.036399908 -0.81272012 -0.8998735
0.15564494 -0.71218425 -0.88530195
0.02909971 -0.68841636 -0.89055085
5.0193911 -86.226746 13.520141
5.9513102 -30.069307 3.7376854
1.5564195 -26.710308 2.5540855
21.546448 -109.03019 7.7301702
6.3648586 -109.68102 5.1218476
4.6735773 -80.769798 0
1.608405 -8.1734018 -0.19259271
0.47420666 -8.1848087 -0.38070419
1.6035827 -8.1564388 -0.57302666
0.45590395 -7.8913484 -0.72034562
1.5995352 -8.1284637 -0.95887363
0.4503969 -7.8672295 -1.1039691
1.5990012 -8.1183491 -1.4439405
0.45104644 -8.0764952 -2.3049362
1.5998756 -8.1079712 -1.8847903
0.44171223 -8.0346365 -2.7555807
1.4009423 -7.0118012 -2.863301
0.065228552 -1.2221506 -0.62874329
1.1938397 -5.9451008 -2.8062038
0.063084565 -1.216769 -0.70972013
0.2707316 -1.3295318 -0.88797849
0.057370234 -1.1741802 -0.86238849
0.22205032 -1.0719298 -0.88772947
0.045230813 -1.004814 -0.90892369
0.18402603 -0.87198687 -0.88988072
0.033846498 -0.81283051 -0.8998735
0.15274376 -0.7096566 -0.88136733
0.02688545 -0.68702525 -0.88853598
4.7094722 -86.080971 13.494613
5.8931894 -30.33106 3.7676766
1.4688052 -26.904692 2.5721641
6.067296 -31.28503 2.2148173
5.9837294 -109.73499 5.1233616
1.5770142 -8.1718807 -0.19241863
0.44535732 -8.181427 -0.38047126
1.574623 -8.1671591 -0.57337201
0.42657635 -7.8855085 -0.71966201
1.5697321 -8.1342707 -0.95887363
0.42129558 -7.8638835 -1.1032724
1.5668966 -8.1120672 -1.4417828
0.42106801 -8.0708942 -2.3028727
1.5692201 -8.1089954 -1.883674
0.41214046 -8.0338411 -2.7547677
1.3747865 -7.0146136 -2.8623679
0.060538176 -1.2179663 -0.62640589
1.173359 -5.9561071 -2.8093688
0.058723208 -1.2191337 -0.71100587
0.26585683 -1.3305151 -0.88797849
0.052952606 -1.1763834 -0.86389619
0.21773304 -1.0708596 -0.88612419
0.041372281 -1.0049803 -0.90892369
0.18082879 -0.87265545 -0.88988072
0.030837109 -0.81622428 -0.90365446
0.15034348 -0.71174562 -0.88333458
0.024413168 -0.68859845 -0.89055085
4.5811591 -89.768089 14.070136
5.6802392 -29.818602 3.7013326
1.368416 -26.875099 2.5688338
5.897131 -31.015501 2.1941683
5.587956 -109.88338 5.1293011
15.16206 -79.95047 1.8884881
4.2726884 -84.299194 0
1.5461214 -8.1726942 -0.19230258
0.41511607 -8.1780167 -0.38023832
1.5428226 -8.1630735 -0.57268137
0.39792097 -7.8919911 -0.72011775
1.5389835 -8.1350908 -0.95829642
0.39259285 -7.867847 -1.1036208
1.5366948 -8.1153355 -1.4413513
0.39125237 -8.0675812 -2.301497
1.5390334 -8.1122971 -1.8831158
0.38258037 -8.0329351 -2.7539544
1.3499445 -7.0241599 -2.8642344
0.056268048 -1.2225958 -0.62874329
1.1528137 -5.9670434 -2.8125339
0.054072656 -1.2150564 -0.7084344
0.26218879 -1.3375876 -0.89216048
0.048874423 -1.1825477 -0.86841917
0.21494704 -1.0772856 -0.89094007
0.037751943 -1.0069493 -0.91063219
0.17798066 -0.87500983 -0.89168209
0.027595509 -0.80815637 -0.89420205
0.1474136 -0.71078289 -0.88136733
0.021767516 -0.68424487 -0.88450634
4.1308818 -86.901947 13.618382
5.5756617 -29.835808 3.7010298
1.2963642 -27.3396 2.6128411
5.7339325 -30.741699 2.1733458
4.1383872 -87.381935 4.0779133
14.856583 -79.784103 1.8833818
3.9778144 -84.301109 0
1.5162139 -8.1706705 -0.19212851
0.38633862 -8.174427 -0.38000545
1.5147742 -8.1708612 -0.57285404
0.37151518 -7.8882942 -0.71966201
1.5096695 -8.1355305 -0.95771915
0.36672887 -7.8740516 -1.1043175
1.5074568 -8.1158094 -1.4404883
0.36460492 -8.0712357 -2.3021848
1.5107069 -8.1176205 -1.8831158
0.35625196 -8.0412455 -2.7563934
1.3249868 -7.0265503 -2.863301
0.052213468 -1.2227757 -0.62874329
1.1345166 -5.9843912 -2.8188636
0.050294492 -1.2216563 -0.7122916
0.2571218 -1.3364576 -0.8907665
0.044738676 -1.1767244 -0.86389619
0.21043816 -1.0742698 -0.88772947
0.034355246 -1.0052446 -0.90892369
0.17507805 -0.87559515 -0.89168209
0.024915414 -0.80824345 -0.89420205
0.14631651 -0.71730804 -0.88923663
0.019591236 -0.69319433 -0.89659524
3.8126991 -86.23661 13.512018
17.416946 -94.911446 11.775618
1.2107975 -27.350994 2.6135547
5.5663528 -30.402386 2.1480119
4.9500103 -112.42123 5.246109
14.551027 -79.609192 1.8781013
3.6948459 -84.236412 0
1.4909865 -8.1778517 -0.19218652
0.35933802 -8.1781569 -0.38012189
1.4877541 -8.1682186 -0.57233608
0.34557092 -7.8944569 -0.72011775
1.4827651 -8.1329031 -0.95685315
0.34507841 -7.9791045 -1.1189488
1.4806243 -8.1132374 -1.4391936
0.33803731 -8.0772028 -2.3035605
1.4834412 -8.1127396 -1.8808835
0.32939208 -8.0376587 -2.7547677
1.3033292 -7.0329585 -2.8642344
0.048075784 -1.2207336 -0.62757462
1.1173751 -5.9968376 -2.8230834
0.046089664 -1.2175311 -0.70972013
0.25253201 -1.3352205 -0.88937247
0.0410356 -1.1768599 -0.86389619
0.2081652 -1.0805684 -0.8925454
0.031145412 -1.0035233 -0.90721518
0.17285405 -0.87957048 -0.89528483
0.022494311 -0.81322378 -0.8998735
0.14437273 -0.71927512 -0.89120394
0.017382672 -0.69177282 -0.89458048
3.5116541 -86.249397 13.512018
5.3544307 -29.77293 3.6886089
1.1067148 -27.260757 2.6045153
5.5104442 -30.701466 2.1677933
4.5561414 -112.40289 5.2444782
14.340504 -80.035896 1.8869795
3.4014885 -84.266273 0
1.4592431 -8.17342 -0.1919544
0.33098921 -8.1843529 -0.38035482
1.4573677 -8.1711626 -0.5721634
0.3200016 -7.9453673 -0.72467548
1.4525095 -8.1358395 -0.95656455
0.31829789 -8.0074711 -1.1227809
1.4500098 -8.1137619 -1.4383305
0.30974919 -8.0759325 -2.3028727
1.453266 -8.1157227 -1.8803252
0.30124551 -8.036396 -2.7539544
1.2783735 -7.0422521 -2.866101
0.04388915 -1.2231028 -0.62874329
1.098652 -6.0187287 -2.8315232
0.041908622 -1.2198274 -0.71100587
0.24763648 -1.3361371 -0.88937247
0.036785759 -1.178995 -0.86540383
0.20384257 -1.0794419 -0.89094007
0.027512018 -1.0054553 -0.90892369
0.16944839 -0.87846756 -0.89348346
0.019379936 -0.80675876 -0.89231157
0.14082079 -0.71526301 -0.88530195
0.014872395 -0.69331163 -0.89659524
5.5625463 -31.593548 3.9118762
0.98397642 -26.645376 2.545284
5.3775864 -30.60601 2.1596377
0.97973824 -26.530508 1.2364405
14.463214 -82.5448 1.9448324
2.4500666 -66.754959 0
1.4279832 -8.1713285 -0.19178033
0.30098376 -8.1855116 -0.38035482
1.4256904 -8.1666222 -0.57147282
0.29254875 -8.0311289 -0.7324236
1.4218239 -8.1362162 -0.95598727
0.29125035 -8.1125431 -1.1374122
1.4194115 -8.1141701 -1.4374673
0.27873763 -8.0770626 -2.3028727
1.4230893 -8.1185942 -1.8797672
0.2703858 -8.0374937 -2.7539544
1.2533673 -7.0514569 -2.8679676
0.039258797 -1.2254714 -0.62991196
1.0793835 -6.0383315 -2.838908
0.037346497 -1.2242657 -0.71357733
0.24311262 -1.3390769 -0.8907665
0.032208372 -1.177134 -0.86389619
0.20059255 -1.0839487 -0.89415067
0.023499537 -0.9982546 -0.90208966
0.16738527 -0.8859207 -0.90068901
0.016309194 -0.80846292 -0.89420205
0.13867155 -0.7188251 -0.88923663
0.012291402 -0.69040167 -0.89256561
0.92422831 -27.501953 4.3036561
0.88681346 -26.524286 2.5333903
5.2643704 -30.587727 2.1570349
0.8879559 -26.558725 1.2376051
11.775979 -68.546989 1.6139624
2.2162044 -66.738113 0
1.3994513 -8.1762638 -0.19178033
0.27241522 -8.186512 -0.38035482
1.3959116 -8.1641741 -0.57095486
0.26820183 -8.1017246 -0.73880434
1.3929949 -8.1386833 -0.95569867
0.2655454 -8.1505795 -1.1426377
1.3906626 -8.1166487 -1.4370359
0.25210005 -8.0827465 -2.3042486
1.3947414 -8.1235132 -1.8797672
0.24366009 -8.035984 -2.7531414
1.2319354 -7.0740666 -2.8754337
0.035076752 -1.2211764 -0.62757462
1.0606513 -6.0554566 -2.8452375
0.033124842 -1.2179528 -0.70972013
0.23954046 -1.3460445 -0.89494854
0.028478693 -1.1852094 -0.86992687
0.19680762 -1.0846424 -0.89415067
0.16380224 -0.88306427 -0.89708626
0.013649842 -0.81014818 -0.89609253
0.13511075 -0.71322381 -0.88136733
0.0098813744 -0.69044036 -0.89256561
0.82918674 -27.537106 4.3086839
5.1950827 -30.762962 3.8043325
0.78998798 -26.385429 2.5198312
5.1480308 -30.549353 2.153044
0.79613745 -26.591618 1.2390027
11.508851 -68.422539 1.6100748
1.9839731 -66.770439 0
1.3704885 -8.1786337 -0.19172232
0.24376364 -8.1849165 -0.38023832
1.3674048 -8.1689968 -0.57095486
0.24181758 -8.1673136 -0.7447294
1.3637549 -8.1385975 -0.95512134
0.23666525 -8.1366091 -1.1405474
1.359465 -8.104455 -1.4340152
0.22388448 -8.0835772 -2.3042486
1.3647578 -8.1187201 -1.8775346
0.21585861 -8.0462379 -2.7563934
1.2134871 -7.1149015 -2.8903663
0.030916432 -1.2257102 -0.62991196
1.0398915 -6.0613556 -2.8462925
0.028919589 -1.2202045 -0.71100587
0.23339753 -1.3386978 -0.88937247
0.024195189 -1.177326 -0.86389619
0.19302031 -1.0853227 -0.89415067
0.16135117 -0.88703954 -0.90068901
0.010885768 -0.81673408 -0.90365446
0.13377547 -0.71975237 -0.88923663
0.0074712285 -0.69047064 -0.89256561
0.71122313 -26.542221 4.1524267
5.0958781 -30.797159 3.806453
0.68576211 -25.589207 2.4434726
5.0214958 -30.4137 2.1422858
0.70808458 -26.599104 1.2392355
11.342863 -68.830238 1.6187788
1.764454 -66.849129 0
1.3439758 -8.1779671 -0.19160625
0.21668553 -8.1881762 -0.38035482
1.3417344 -8.1732521 -0.57095486
0.21492669 -8.1755371 -0.74541306
1.3377764 -8.1403904 -0.95483267
0.20987122 -8.1447735 -1.1415926
1.3339974 -8.1086864 -1.4340152
0.19690347 -8.0770664 -2.3021848
1.3396424 -8.125371 -1.8780926
0.18901052 -8.0398188 -2.7539544
1.1911291 -7.1186786 -2.8903663
0.02680769 -1.2235963 -0.62874329
1.0212213 -6.0668273 -2.8473475
0.024715928 -1.2117189 -0.70586294
0.020490317 -1.1773968 -0.86389619
0.18927497 -1.0840368 -0.8925454
0.013646522 -1.005739 -0.90892369
