# .PCD v0.7 - Point Cloud Data file format
VERSION 0.7
FIELDS x y z
SIZE 4 4 4
TYPE F F F
COUNT 1 1 1
WIDTH 1590
HEIGHT 1
VIEWPOINT 0 0 0 1 0 0 0
POINTS 1590
DATA ascii
470507.84 3872187 -1.9819597
470507.69 3872186.8 -1.9750332
470507.41 3872187 -1.9362974
470507.56 3872186.8 -1.9830661
470507.81 3872187 -1.6483792
470507.5 3872186.8 -1.6094733
470507.5 3872186.8 -1.7601455
470488.66 3872187.8 -0.53137839
470565.69 3872186.2 0.046985608
470565.75 3872186.2 0.31380665
470565.69 3872186.2 -0.20491122
470511.97 3872178.2 -1.779281
470497.59 3872193 -0.546826
470497.72 3872193 -0.69207078
470497.59 3872193 -0.67593533
470497.44 3872193 -0.6953879
470497.75 3872193 -0.86582655
470497.44 3872193 -0.65742612
470497.5 3872193 -0.53752476
470516.69 3872186.5 -1.5387806
470516.88 3872186.2 -1.6917911
470516.59 3872186.2 -1.787514
470481.62 3872224 5.0222812
470565.06 3872186.2 1.2364527
470565.16 3872186.2 1.178069
470516.25 3872186.5 -0.94859111
470516.34 3872186.5 -0.8205657
470555.59 3872186.8 2.1865456
470487.41 3872215.2 1.6767617
470520.06 3872243.8 0.87605178
470520.34 3872244 0.89784664
470564.59 3872186.2 2.1057408
470564.66 3872186.2 2.2525363
470496.62 3872209.2 1.7875543
470548.59 3872206.2 7.5596118
470548.66 3872206.5 7.5685277
470548.56 3872206.2 7.5199423
470482.47 3872223.8 2.8643796
470524.69 3872191.2 0.96065152
470528.94 3872188.2 0.80144107
470533.44 3872190.8 0.95893723
470482.31 3872224 3.9807999
470497.81 3872209.2 -1.0630797
470497.72 3872209.2 -1.0723639
470516.81 3872186.5 -2.2002206
470516.69 3872186.5 -2.203078
470516.44 3872186.5 -2.2073371
470516.69 3872186.5 -2.4527848
470516.44 3872186.5 -2.4128578
470516.59 3872186.2 -2.1296878
470516.53 3872186.5 -2.1800511
470516.69 3872186.5 -2.20421
470497.62 3872193.2 -1.2379122
470497.59 3872193 -1.215237
470497.5 3872192.8 -1.1745038
470497.84 3872192.8 -1.2061327
470533.09 3872191 1.5314902
470532.97 3872191 1.5436419
470533.22 3872190.8 1.5206374
470497.47 3872187.2 -1.1426189
470497.69 3872187.2 -1.119527
470497.81 3872187.2 -1.1094942
470497.41 3872187.5 -1.1021967
470497.69 3872187.5 -1.4318906
470497.47 3872176.5 -1.4677194
470506.94 3872187 -1.2071648
470507.06 3872187 -1.2464038
470507.28 3872187 -1.1022301
470507.16 3872187 -1.0899723
470506.97 3872187 -1.0690404
470507.25 3872187.2 -1.2122303
470507.06 3872187 -1.3151435
470507.28 3872187 -1.3044388
470507.12 3872187 -1.1831704
470507.19 3872187 -1.3076485
470506.91 3872187 -1.1582264
470565.16 3872186.2 0.53208035
470565.09 3872186.2 0.64028418
470565.19 3872186.2 0.70375824
470511.41 3872189.2 -1.3506802
470511.81 3872178.2 -1.1839675
470511.81 3872178.5 -1.2330734
470511.47 3872178.2 -1.1881942
470511.41 3872178.2 -1.0703504
470497.38 3872193 -0.4355154
470496.91 3872193 -0.49803334
470515.97 3872186.5 -1.145768
470516.25 3872186.5 -1.3996266
470516.09 3872186.5 -1.3778439
470516.22 3872186.5 -1.2017968
470487.41 3872215.5 1.4622338
470564.62 3872186.2 1.6349351
470564.69 3872186.5 1.9213723
470564.72 3872186.2 1.9501841
470511.03 3872178.5 -0.068603195
470510.91 3872178.5 -0.065245174
470510.97 3872178.5 0.1088945
470510.91 3872178.5 0.28114051
470510.97 3872178.2 0.070919409
470511.16 3872178.2 -0.3597652
470511 3872178.5 -0.42501956
470536.66 3872204.5 3.5731115
470538.19 3872204.2 0.43016684
470538.34 3872204.5 0.44058797
470537.94 3872204.5 0.48910037
470481.97 3872223.8 3.3144643
470482.38 3872224 3.2237992
470482.22 3872224 3.2658985
470482.03 3872224 3.2883008
470482.28 3872223.8 3.1798651
470516.47 3872186.2 -2.5496135
470533.22 3872190.8 1.1083184
470533 3872191 1.1456251
470532.97 3872191 1.2971675
470533.09 3872190.8 1.2805765
470533 3872191 1.4654127
470532.91 3872191 1.4790165
470533.16 3872190.8 1.4985714
470533.38 3872190.8 1.4818157
470533.31 3872190.8 1.1991496
470533 3872190.8 1.2263403
470481.88 3872224 4.0201025
470506.97 3872186.8 -1.9462221
470507.28 3872187 -1.9284167
470507.19 3872187 -1.8355534
470507.31 3872187 -1.8463341
470507.06 3872186.8 -1.9397415
470506.97 3872187 -1.7942805
470507 3872187 -1.8932631
470507.22 3872187 -1.9146599
470507.28 3872186.8 -1.9900616
470507.31 3872187 -1.5728936
470565.12 3872186.2 0.076723263
470565.22 3872186.2 0.3437058
470511.88 3872178.2 -1.647482
470511.84 3872178.5 -1.8145148
470511.78 3872178.5 -1.7783961
470511.59 3872178.2 -1.6109108
470549.09 3872206.5 5.897584
470548.91 3872206.2 5.8257947
470516.31 3872186.5 -1.832828
470516.06 3872186.5 -1.9809886
470516.31 3872186.2 -1.9588308
470516.31 3872186.2 -1.5858238
470516.16 3872186.2 -1.7266594
470497.16 3872193 -0.64894134
470497.22 3872192.8 -0.80593604
470497 3872193 -0.89693272
470497.06 3872187.2 -0.66436368
470497.16 3872187.2 -0.87322897
470553.59 3872209 5.781692
470564.56 3872186.2 1.2555158
470564.44 3872186.2 1.3278881
470564.44 3872186.2 1.2293645
470511.31 3872178.2 -0.71878725
470511.38 3872178.5 -0.9306699
470511.16 3872178.5 -0.61697537
470482.41 3872224 1.6624645
470482.66 3872224 1.6425393
470515.59 3872186.2 -0.95886952
470515.78 3872186.2 -0.98092198
470536.44 3872204.5 3.2168047
470487.38 3872215.5 1.5541766
470564.16 3872186.2 2.1244068
470563.88 3872186.5 2.1412597
470564.16 3872186.2 2.2720087
470510.41 3872178.5 0.81012368
470524.38 3872191.2 0.99117249
470528.78 3872188.2 0.81867594
470532.94 3872190.8 0.66440099
470533.03 3872190.8 0.9716292
470533.16 3872190.8 0.96222758
470533 3872190.8 0.57234871
470554.22 3872209 4.0152378
470507.12 3872186.8 -2.025712
470507.25 3872186.8 -2.0190392
470507.34 3872186.8 -2.0123537
470507.06 3872186.8 -2.0177367
470511.72 3872178.5 -2.1348703
470516.09 3872186.5 -2.2185585
470516.22 3872186.5 -2.2139814
470516.31 3872186.5 -2.2594373
470515.97 3872186.5 -2.2712283
470515.94 3872186.5 -2.2127216
470516.06 3872186.5 -2.2352922
470515.94 3872186.2 -2.1013148
470516.25 3872186.2 -2.1098058
470516.03 3872186.5 -2.4311469
470482.91 3872224 0.087002002
470483 3872224 0.011531448
470497.25 3872187.2 -1.1635292
470496.91 3872187.2 -1.1975008
470497.03 3872187.2 -1.1862556
470497.19 3872187.5 -1.087889
470497.28 3872187.5 -1.0949212
470532.88 3872191 1.5326747
470497.31 3872176.5 -1.4846734
470481.12 3872223.8 4.634882
470481.38 3872223.8 4.6469369
470506.75 3872187 -1.2150997
470506.84 3872187 -1.2526478
470506.75 3872187 -1.3228763
470564.66 3872186.2 0.56106597
470564.66 3872186.2 0.66836011
470511.28 3872178.2 -1.2114638
470511.25 3872178.5 -1.2429353
470511 3872178.2 -1.082082
470515.66 3872186.2 -1.1389281
470515.88 3872186.2 -1.341872
470515.84 3872186.5 -1.4294794
470496.88 3872193 0.36495981
470496.84 3872192.8 0.37010527
470524.44 3872191.2 -1.1939964
470564.12 3872186.2 1.6531035
470564.22 3872186.5 1.9392399
470564.22 3872186.2 1.9675151
470510.81 3872178.5 0.11026384
470510.41 3872178.5 0.448401
470510.88 3872178.5 -0.46233889
470510.53 3872178.5 0.18303208
470510.62 3872178.2 0.19730213
470510.41 3872178.2 -0.12219028
470482.91 3872188 10.228039
470533.41 3872190.8 -1.4164565
470528.88 3872188.2 0.49756104
470526.44 3872205 4.5998173
470526.41 3872199.5 4.6576238
470532.94 3872191 0.33474264
470533.03 3872190.8 0.32193261
470533.06 3872190.8 0.4063977
470532.91 3872191 0.46087572
470481.84 3872223.8 3.3102586
470481.84 3872223.8 3.2676749
470554.25 3872209 3.791533
470523.88 3872191.5 1.0437847
470549.22 3872206.5 4.7574277
470497 3872187.2 -1.9002345
470532.84 3872191 1.1634628
470523.16 3872207.8 2.1152902
470506.62 3872187 -1.965758
470506.88 3872187 -1.8017898
470506.78 3872187 -1.7912261
470506.81 3872186.8 -1.952266
470506.84 3872187 -1.8712931
470564.56 3872186.2 -0.27084956
470564.66 3872186.2 0.10487849
470564.72 3872186.2 0.37170941
470564.75 3872186.2 0.46354872
470564.41 3872186.2 -0.13331768
470492.25 3872195.8 -0.76762998
470515.78 3872186.5 -1.9846739
470515.84 3872186.2 -1.9612036
470515.59 3872186.5 -1.6113802
470515.84 3872186.5 -1.5403661
470515.41 3872186.5 -1.9015324
470515.75 3872186.2 -1.6680553
470496.88 3872192.8 -0.83703262
470496.59 3872187.2 -0.68847287
470496.84 3872187.2 -0.68163121
470496.47 3872187.2 -0.76439422
470496.69 3872187.2 -0.91603273
470522.56 3872207.8 3.1181629
470527 3872205 3.174793
470564.06 3872186.2 1.2755169
470510.41 3872178.2 -0.76605397
470510.81 3872178.2 -0.72745836
470510.59 3872178.2 -0.68793142
470510.62 3872178.2 -0.78159374
470481.94 3872223.8 1.7359854
470481.91 3872224 1.7092586
470481.94 3872224 1.9437671
470548.12 3872206.2 6.7235851
470515.25 3872186.5 -0.92045927
470573.19 3872186 1.4946417
470573.31 3872186 1.2625587
470526.66 3872204.8 4.1168971
470526.62 3872204.8 4.0492034
470526.81 3872204.8 4.030612
470526.56 3872205 4.0323982
470526.72 3872204.8 4.0118012
470526.88 3872204.8 4.2196298
470526.66 3872205 4.0328832
470526.38 3872205 4.330153
470526.41 3872204.8 4.299427
470563.47 3872186.5 2.1596186
470563.56 3872186.2 2.2282267
470563.69 3872186.2 2.2918146
470547.41 3872206.2 7.6163492
470547.44 3872206.2 7.6632047
470547.59 3872206.2 7.637929
470547.41 3872206.5 7.6260366
470547.56 3872206.5 7.6050677
470547.53 3872206.5 7.6036787
470547.75 3872206.2 7.5498643
470547.66 3872206.5 7.5794039
470547.69 3872206.2 7.5424395
470547.5 3872206.2 7.844799
470523.5 3872191.5 0.50367564
470523.59 3872191.2 0.56002343
470523.66 3872191.2 0.59197968
470523.75 3872191.2 0.70824617
470496.94 3872187.2 -2.0302522
470497.22 3872187.2 -2.0445898
470497.06 3872187.2 -2.1077752
470497.22 3872187.2 -2.130348
470532.78 3872190.8 0.86784166
470532.81 3872190.8 0.67758721
470532.75 3872190.8 0.58876538
470506.81 3872186.8 -2.0451646
470506.75 3872186.8 -2.0257759
470487.5 3872187.8 -1.3492161
470510.97 3872178.2 -2.0728071
470515.62 3872186.5 -2.3094738
470515.41 3872186.5 -2.3141794
470515.5 3872186.5 -2.2731833
470515.72 3872186.5 -2.2195802
470515.62 3872186.5 -2.1125767
470515.59 3872186.2 -2.0920489
470515.47 3872186.2 -2.3238575
470515.41 3872186.2 -2.3666315
470515.59 3872186.2 -2.4012456
470515.75 3872186.2 -2.4235899
470515.69 3872186.2 -2.0397828
470515.78 3872186.5 -2.0554364
470496.44 3872187.2 -1.2420695
470496.69 3872187.2 -1.2192811
470536.59 3872193.2 1.6945448
470536.56 3872193.5 1.5673406
470536.56 3872193.2 1.551505
470527.16 3872204.8 2.6357772
470527.19 3872205 2.6392136
470526.97 3872205 2.7937739
470564.19 3872186.2 0.5884977
470563.94 3872186.2 0.62003762
470564.09 3872186.2 0.76841712
470526.97 3872199.2 2.8276505
470527 3872199.2 2.8370652
470510.53 3872178.5 -1.3280245
470510.56 3872178.5 -1.2348295
470537.91 3872204.8 -2.2728775
470538.31 3872204.2 -2.2312717
470515.25 3872186.5 -1.0574584
470514.91 3872186.5 -1.0137242
470515.34 3872186.2 -1.1024598
470514.97 3872186.2 -1.0610682
470515.12 3872186.5 -1.4440699
470514.97 3872186.2 -1.4740212
470523.97 3872191.2 -1.20772
470524.12 3872191.2 -1.2013081
470524.28 3872191.2 -1.1972141
470522 3872207.8 3.8309364
470526.88 3872204.8 3.9931047
470526.59 3872205 3.987042
470526.78 3872205 3.968447
470526.66 3872205 3.9111886
470526.84 3872204.8 3.8935256
470526.66 3872204.8 3.9968278
470563.66 3872186.2 1.6711892
470563.81 3872186.5 1.9560884
470510.25 3872178.5 0.21454655
470533.03 3872191 -1.4421829
470533.28 3872190.8 -1.4272149
470532.97 3872191 -1.4600912
470532.94 3872191 -1.3384938
470532.97 3872190.8 -1.3162283
470533.28 3872190.8 -1.2144082
470533.16 3872190.8 -1.2226413
470532.97 3872191 -1.2543871
470532.97 3872190.8 -1.1418419
470533.06 3872190.8 -1.1259906
470547.47 3872206.5 7.2864814
470547.62 3872206.2 7.2663198
470500.03 3872189.8 1.2282277
470499.91 3872189.8 1.2202427
470523.72 3872191.2 0.14865167
470523.56 3872191.5 0.17832573
470523.53 3872191.5 0.27703443
470523.59 3872191.2 0.26441881
470523.5 3872191.5 0.37575799
470523.59 3872191.2 0.36411053
470523.56 3872191.2 0.45565328
470523.66 3872191.2 0.44461548
470523.53 3872191.5 -0.021388527
470523.59 3872191.2 -0.19485013
470523.5 3872191.5 -0.29934233
470523.44 3872191.5 -0.29002348
470523.44 3872191.5 0.36082232
470523.84 3872191.2 0.44544649
470523.44 3872191.2 0.15847176
470523.41 3872191.5 0.17766991
470526.34 3872199.5 4.678546
470532.72 3872191 0.26825184
470532.84 3872191 0.2806358
470532.81 3872191 0.43455288
470532.78 3872191 0.44381082
470481.28 3872223.8 3.1243696
470471.5 3872224.5 4.301857
470548.44 3872206.5 4.7108083
470496.88 3872187.2 -1.913727
470496.75 3872187.2 -1.926083
470496.41 3872187.2 -1.9608521
470536.5 3872193.5 1.1721909
470536.56 3872193.5 1.2894289
470536.5 3872193.2 1.276317
470536.59 3872193.5 1.3661242
470536.59 3872193.2 1.4254227
470522.5 3872208 2.34619
470487.31 3872187.8 -0.74694043
470526.97 3872205 2.1235046
470527.03 3872204.8 2.1272795
470527.22 3872204.8 2.0819342
470526.97 3872204.8 2.0319538
470527.06 3872204.8 2.0427768
470527.31 3872204.8 2.0207057
470527.03 3872205 2.4810288
470527.31 3872204.8 2.3307624
470564.06 3872186.2 0.13528602
470564.25 3872186.2 0.39919493
470510.72 3872178.5 -1.9836782
470510.75 3872178.5 -1.6762305
470538.12 3872204.2 -2.6548872
470538.09 3872204.5 -2.6802328
470515.19 3872186.2 -1.9662291
470514.97 3872186.5 -1.5281827
470515.31 3872186.5 -1.5740579
470515.03 3872186.2 -1.5051998
470515.25 3872186.2 -1.6028242
470515.06 3872186.2 -1.576946
470496.12 3872187.2 -0.72718966
470496.03 3872187.2 -0.73642081
470496.25 3872187.2 -0.71826226
470496.16 3872187.2 -0.79141206
470496.03 3872187.2 -0.80086076
470496.25 3872187.2 -0.78272337
470573.12 3872185.8 0.40559012
470572.94 3872185.8 -0.28233722
470554.5 3872186.8 1.4902596
470522.19 3872207.8 3.3695507
470522.03 3872208 3.0352428
470522.22 3872207.8 3.113996
470526.88 3872205 3.1610396
470526.69 3872205 3.1515524
470526.88 3872205 3.0504298
470526.78 3872205 3.3750229
470563.5 3872186.2 1.2944553
470510.06 3872178.2 -0.96068919
470510.31 3872178.2 -0.75722677
470510.09 3872178.2 -0.86179602
470482.44 3872188 9.9229069
470533.06 3872190.8 -1.6031418
470533.12 3872190.8 -1.5009333
470533 3872190.8 -1.5083718
470481.47 3872223.8 1.7505786
470481.84 3872223.8 1.9420515
470481.56 3872223.8 1.9614624
470547.38 3872206.5 6.5491114
470553.94 3872209 2.4703753
470540.25 3872207 3.4476123
470563.09 3872186.5 2.1773362
470563.09 3872186.2 2.2481132
470563 3872186.2 2.0020511
470526.06 3872199.5 4.1073856
470526.34 3872199.2 4.4130549
470549.09 3872206.2 3.1653082
470549.03 3872206.2 3.396975
470549.03 3872206.5 3.3891444
470547.38 3872206.2 7.5938778
470547.34 3872206.2 7.8616738
470481.09 3872223.8 2.6033459
470471.56 3872224.5 3.9186933
470496.59 3872187.2 -2.0115411
470496.81 3872187.2 -2.0236166
470496.66 3872187.2 -2.0930977
470496.88 3872187.2 -2.1038926
470496.84 3872187.2 -2.0933814
470496.72 3872187.2 -2.0881035
470496.5 3872187.2 -2.0761111
470536.78 3872204.5 0.56061912
470527 3872205 1.9942862
470527.19 3872204.8 1.9794202
470527.06 3872204.8 1.966225
470510.44 3872178.5 -2.0552356
470515.16 3872186.5 -2.2852373
470515.25 3872186.5 -2.2781906
470515.34 3872186.5 -2.225378
470515.12 3872186.5 -2.200613
470514.94 3872186.2 -2.289422
470482.12 3872223.8 0.10147566
470496.34 3872187.2 -1.2542703
470496 3872187.2 -1.2890291
470496.09 3872187.2 -1.2777642
470500.47 3872195.5 -1.0476588
470522.12 3872208 2.8118076
470526.69 3872205 2.8314145
470526.44 3872205 2.8115633
470526.88 3872205 2.7877052
470526.66 3872199.5 2.5605104
470526.84 3872199.2 2.5565512
470526.88 3872199.2 2.563875
470510.12 3872178.5 -1.4992931
470510.19 3872178.5 -1.0545584
470510.09 3872178.2 -1.4621315
470509.91 3872178.5 -1.3345628
470514.47 3872186.5 -1.4631099
470514.66 3872186.5 -1.0382282
470514.72 3872186.2 -1.4663115
470514.66 3872186.5 -1.4622357
470514.44 3872186.5 -1.1537129
470547.59 3872206.2 6.0270863
470500.09 3872195.5 -0.21037617
470554.09 3872186.8 1.5048831
470523.88 3872191.2 -1.2137808
470523.59 3872191.5 -1.2266093
470523.69 3872191.2 -1.1736947
470523.72 3872191.2 -1.1561288
470523.72 3872191.2 -1.2850869
470521.72 3872207.8 3.7496274
470563.28 3872186.2 1.6893817
470562.91 3872186.2 1.7065718
470563.38 3872186.2 1.9845486
470525.88 3872199.5 3.9399254
470547.31 3872206.5 7.1823559
470499.44 3872189.8 1.1879435
470499.56 3872190 1.1961981
470499.81 3872190 1.1561185
470538.94 3872207 4.7273445
470486.91 3872187.8 -1.7217788
470543.53 3872209.5 4.7249575
470547.91 3872206.2 4.66606
470548.31 3872206.2 4.6218824
470496.19 3872187.2 -1.9855396
470496.28 3872187.2 -1.9736969
470496.34 3872187.2 -1.9997063
470496.12 3872187.2 -1.9876992
470496 3872187.2 -1.9805597
470522.25 3872208 2.2143173
470526.62 3872199.2 2.0988009
470526.44 3872199.2 2.088165
470526.44 3872199.5 2.134053
470526.66 3872199.2 2.1806276
470526.56 3872199.2 2.1695778
470526.53 3872199.2 2.1796932
470526.44 3872199.2 2.1999352
470526.66 3872199.5 2.0504854
470563.75 3872186.2 -0.097468711
470509.94 3872178.5 -1.7245748
470547.56 3872206.2 5.6392665
470514.81 3872186.5 -1.9553694
470514.56 3872186.2 -1.9752743
470514.41 3872186.2 -1.8335007
470495.47 3872187.5 -0.64793998
470495.56 3872187.2 -0.77238184
470495.47 3872187.2 -0.8519035
470500.22 3872195.2 -0.93850631
470572.69 3872186 0.42735812
470516.91 3872205.5 3.2094162
470523.84 3872191.2 -1.7965046
470523.81 3872191.5 -1.815609
470523.75 3872191.5 -1.7058014
470523.81 3872191.2 -1.6875185
470523.69 3872191.2 -1.5985321
470523.72 3872191.2 -1.5775226
470521.88 3872208 3.4627013
470521.47 3872208 3.241853
470521.41 3872208 3.0476682
470521.56 3872207.8 3.20333
470563.09 3872186.2 1.3135294
470563.19 3872186.2 1.36933
470563.22 3872186.2 1.170334
470562.97 3872186.5 1.2045085
470482.31 3872188 9.9327374
470482.16 3872188 9.9571466
470482.38 3872188 9.8996134
470481.19 3872224 1.7286726
470480.94 3872224 1.7503425
470547.12 3872206.5 6.8555546
470547.03 3872206.2 6.787797
470546.94 3872206.2 6.7086196
470516.81 3872205.5 4.0875883
470571.97 3872186 1.4905597
470520.94 3872208 4.119247
470562.59 3872186.5 2.1955032
470562.62 3872186.2 2.2662218
470562.5 3872186.2 2.0188577
470525.88 3872199.5 4.1165214
470480.59 3872224 2.657608
470480.72 3872224 2.6423464
470491.47 3872195.8 -2.0293732
470496.06 3872187.2 -2.0646861
470496.28 3872187.2 -2.074796
470495.97 3872187.2 -2.0213075
470496.28 3872187.2 -2.0645857
470495.94 3872187.2 -2.0486991
470496.16 3872187.2 -2.0589786
470522.25 3872207.8 1.7382278
470522.38 3872208 1.6749396
470522.19 3872208 1.6616871
470486.78 3872187.8 -1.3511966
470526.88 3872205 1.9314719
470526.69 3872199.5 1.8399731
470510.16 3872178.5 -2.0886629
470514.56 3872186.5 -2.2129369
470514.66 3872186.5 -2.2058258
470514.47 3872186.5 -2.2169633
470514.44 3872186.2 -2.1909091
470547.66 3872206.2 5.2536421
470547.78 3872206.2 5.3512034
470495.75 3872187.2 -1.3118697
470495.41 3872187.2 -1.3482437
470500.03 3872195.2 -1.3215742
470521.59 3872208 2.6888027
470521.47 3872208 2.7429559
470563.06 3872186.2 0.64853925
470563.12 3872186.2 0.75984704
470563.38 3872186.2 0.73940164
470509.44 3872189.2 -1.4492904
470513.91 3872186.5 -1.3661371
470513.91 3872186.2 -1.1182833
470514 3872186.5 -1.420629
470513.97 3872186.5 -1.0950314
470514.22 3872186.2 -1.0386598
470547.06 3872206.5 6.0701709
470547.16 3872206.2 6.0012197
470516.47 3872205.5 3.7051899
470516.81 3872205.5 3.9489505
470516.41 3872205.5 3.6222312
470516.41 3872205.2 3.5701036
470553.62 3872186.8 1.5197201
470539.47 3872207 2.6443665
470562.53 3872186.5 1.7246162
470525.66 3872199.5 3.6054153
470481.75 3872188 10.051585
470546.84 3872206.2 7.0920992
470480.59 3872223.8 2.0503271
470515.91 3872205.8 4.5170207
470499.31 3872190 1.180094
470499.19 3872189.8 1.1716746
470527.34 3872204.8 -0.061925966
470538.75 3872207 4.7202497
470538.84 3872207 4.752634
470486.59 3872187.8 -1.7219276
470486.75 3872187.8 -1.7211596
470526.41 3872199.5 1.3245846
470526.59 3872199.5 1.0068465
470526.44 3872199.5 1.4050101
470526.69 3872199.5 1.0069909
470526.69 3872199.5 1.2951312
470526.72 3872199.5 1.1267253
470542.91 3872209.5 4.5458164
470547.75 3872206.5 4.6631508
470514.5 3872186.5 -2.5694323
470514.75 3872186.2 -2.6073706
470495.53 3872187.2 -1.958939
470495.78 3872187.2 -1.9701459
470495.69 3872187.2 -1.8017716
470495.84 3872176.5 -1.7687699
470516.91 3872205.5 2.3898401
470500.03 3872195.5 -1.5978241
470498.38 3872200.8 3.3619573
470498.09 3872200.8 3.4565151
470563.09 3872186.2 -0.18077825
470563.12 3872186.2 0.19005068
470563.09 3872186.2 0.45890939
470563.19 3872186.2 -0.064466439
470562.94 3872186.2 -0.13534772
470526.25 3872199.5 2.4649007
470526.34 3872199.2 2.0828469
470526.34 3872199.2 2.1694403
470526.25 3872199.2 2.2046013
470509.84 3872178.2 -1.871557
470509.88 3872178.2 -1.8443266
470547.12 3872206.2 5.8767023
470547.19 3872206.2 5.9461803
470547.03 3872206.5 5.9005976
470547.19 3872206.5 5.8950796
470546.94 3872206.5 5.9110446
470547.31 3872206.2 5.8463612
470547.06 3872206.5 5.8882556
470546.97 3872206.5 5.5186529
470514 3872186.5 -1.9292898
470514.12 3872186.2 -1.8720775
470494.91 3872187.5 -0.66354561
470495 3872187.5 -0.65256649
470495.25 3872187.5 -0.62922025
470495.25 3872187.2 -0.66495979
470495.34 3872187.2 -0.65479934
470495.06 3872187.2 -0.70133287
470495 3872187.2 -0.77207315
470495.34 3872187.2 -0.74905652
470495.34 3872187.2 -0.86039317
470495.12 3872187.2 -0.87849903
470494.91 3872187.2 -0.9240011
470495.25 3872187.2 -0.89404619
470516.59 3872205.5 3.2241173
470553.75 3872186.8 1.402427
470562.62 3872186.2 1.3329619
470562.66 3872186.2 1.3906581
470562.56 3872186.2 1.2529899
470562.72 3872186.2 1.4351892
470536.41 3872204.5 -1.5512282
470536.66 3872204.5 -1.5469626
470480.72 3872223.8 1.8125687
470480.5 3872223.8 1.8003802
470513.72 3872186.5 -0.98533815
470515.88 3872205.5 4.1031208
470516.31 3872205.2 4.1359224
470516.16 3872205.5 4.0200877
470515.94 3872205.5 4.4515309
470516.31 3872205.5 4.4886637
470516.09 3872205.2 4.3602018
470571.88 3872186 1.2524846
470499.19 3872190 0.61128736
470499.12 3872189.8 0.6577335
470520.5 3872208 4.1196046
470562.16 3872186.5 2.2138145
470562.16 3872186.2 2.2853453
470561.91 3872186.5 2.3664293
470561.94 3872186.2 2.0355275
470547.97 3872206.2 3.2752736
470548.19 3872206.2 3.2852387
470547.91 3872206.5 3.3284771
470548.06 3872206.2 3.3423569
470547.97 3872206.5 3.3363218
470548.09 3872206.5 3.3397088
470548.25 3872206.2 3.3537722
470548.19 3872206.5 3.3948407
470548.25 3872206.2 3.4105263
470480.38 3872223.8 2.650522
470515.41 3872205.5 5.1567783
470515.56 3872205.2 5.1387739
470515.72 3872205.2 5.1152029
470515.44 3872205.5 5.0448008
470515.62 3872205.5 5.0289927
470515.56 3872205.5 5.0020647
470515.5 3872205.5 5.2536602
470515.56 3872205.5 5.1162343
470515.41 3872205.5 5.1244359
470526.56 3872199.5 0.95295835
470526.75 3872199.5 0.96159995
470526.59 3872199.5 0.63095456
470526.69 3872199.5 0.63801897
470526.53 3872199.5 0.62478989
470526.59 3872199.5 0.52832741
470543.31 3872209.2 4.380291
470543.19 3872209.5 4.2763653
470543.38 3872209.2 4.2705488
470482.69 3872188 7.3578067
470482.84 3872188 7.3663588
470495.59 3872187.2 -2.0050416
470495.69 3872187.2 -2.0380929
470495.47 3872187.2 -2.0285671
470497.97 3872200.8 2.7747297
470538.28 3872206.8 5.4432669
470538.25 3872206.8 5.0499554
470486.09 3872187.8 -1.4883071
470486.25 3872187.8 -1.4869145
470542.38 3872209.5 5.0987954
470509.81 3872178.2 -2.2163677
470509.84 3872178.5 -2.2400494
470514.22 3872186.5 -2.2285261
470514 3872186.5 -2.2329512
470513.94 3872186.5 -2.0296113
470546.94 3872206.5 5.28194
470495.28 3872187.2 -1.3597007
470516.75 3872205.5 2.7842369
470521.38 3872208 2.6746171
470520.91 3872208 2.997314
470562.66 3872186.2 0.6734125
470562.62 3872186.2 0.7888447
470562.47 3872186.2 0.58140206
470562.59 3872186.2 0.57636517
470513.88 3872191.8 -1.1777213
470513.88 3872192 -1.1806251
470513.41 3872186.5 -1.3026288
470513.59 3872186.2 -1.3069315
470513.69 3872186.2 -1.101324
470513.5 3872186.5 -1.0394051
470515.91 3872205.2 3.8146594
470516.06 3872205.2 3.820832
470515.94 3872205.5 3.7079201
470516.12 3872205.2 3.7190557
470516.09 3872205.5 3.6324968
470515.97 3872205.5 3.6221013
470516.16 3872205.2 3.8820868
470553.22 3872186.8 1.6985627
470553.06 3872186.8 1.7137685
470499.16 3872190 -0.48324379
470498.97 3872190 -0.26285326
470499.19 3872190 0.18663238
470499.06 3872190 -0.25338531
470499.12 3872189.8 -0.42479789
470499.16 3872190 0.33773333
470499.03 3872190 0.33080575
470498.97 3872190 -0.048991565
470499.12 3872189.8 -0.08071252
470520.59 3872208 3.8703494
470520.75 3872208 3.8467469
470520.81 3872208 3.5528815
470482.91 3872188 5.967361
470562.16 3872186.5 1.741636
470481.03 3872188 10.1759
470481.25 3872188 10.13146
470515.5 3872205.5 4.6964478
470515.69 3872205.5 4.7054906
470515.72 3872205.5 4.9857664
470515.62 3872205.5 4.9615178
470515.47 3872205.5 4.9750433
470515.69 3872205.2 4.8643055
470515.53 3872205.2 4.5631118
470522.34 3872207.8 -0.28279778
470498.44 3872189.8 1.0596129
470538.66 3872207 3.7705917
470526.56 3872199.5 -0.14523971
470526.41 3872199.5 -0.15424527
470526.47 3872199.5 -0.058246247
470526.59 3872199.5 0.0024258203
470526.59 3872199.5 -0.2855579
470526.75 3872199.5 0.41186944
470526.66 3872199.5 0.40307301
470533.47 3872209.8 4.8886356
470486.28 3872187.8 -1.7197278
470486.12 3872187.8 -1.7186434
470485.97 3872187.8 -1.7180889
470486.16 3872187.8 -1.6931876
470486 3872187.8 -1.6937139
470542.81 3872209.2 4.8199506
470542.69 3872209.2 4.6831408
470542.44 3872209.5 4.5577226
470526.25 3872199.5 1.3442507
470547.16 3872206.5 4.6230025
470546.97 3872206.2 4.7668009
470514.19 3872186.2 -2.644454
470495.19 3872187.2 -1.9415979
470494.94 3872187.2 -1.9314042
470495.28 3872187.2 -1.9456736
470495.38 3872187.2 -1.9958107
470495.12 3872187.2 -1.784373
470494.91 3872187.2 -1.7397588
470516.75 3872205.5 2.3747241
470516.62 3872205.5 2.1427412
470516.53 3872205.5 2.1299841
470497.88 3872200.8 3.2720349
470499.47 3872184.5 -1.9047177
470499.69 3872184.5 -1.8838485
470499.41 3872184.2 -1.8471595
470499.66 3872184.5 -1.7590543
470499.72 3872184.5 -1.7909856
470520.91 3872208 2.4621146
470562.59 3872186.2 -0.1516093
470562.66 3872186.2 0.21788505
470562.72 3872186.2 0.48326522
470562.59 3872186.2 -0.031237731
470562.5 3872186.2 -0.14961024
470546.81 3872206.2 5.9041381
470546.72 3872206.5 5.9369807
470546.56 3872206.2 5.903482
470513.66 3872186.2 -1.9632558
470513.41 3872186.2 -1.9692626
470513.78 3872186.2 -1.795653
470494.66 3872187.5 -0.68581361
470494.75 3872187.5 -0.70391291
470494.88 3872187.2 -0.69382328
470516 3872205.2 3.1729774
470515.94 3872205.5 3.1661229
470515.91 3872205.2 3.0426333
470516.06 3872205.2 3.0897741
470571.59 3872186 0.44373119
470571.78 3872185.8 -0.25684413
470553 3872186.8 1.4819565
470553.31 3872186.8 1.4128752
470499.03 3872190 -0.82268769
470499.19 3872189.8 -0.80504602
470498.91 3872190 -0.83150649
470499.22 3872190 -0.80553263
470480.81 3872190.8 0.5331912
470562.16 3872186.2 1.3519634
470562.06 3872186.2 1.4110966
470561.94 3872186.2 1.252677
470562.22 3872186.2 1.2568609
470536.16 3872204.5 -1.5562518
470535.94 3872204.5 -1.5601022
470517.81 3872210.8 -0.53236723
470513.28 3872186.5 -0.94204754
470513.09 3872186.5 -0.91241699
470515.69 3872205.5 4.3299203
470515.88 3872205.5 4.219677
470515.66 3872205.2 4.0706453
470498.41 3872190 0.56548905
470520.34 3872208 4.3699813
470543.03 3872209.2 3.2937386
470543.16 3872209.2 3.2658002
470543.09 3872209.5 3.2300961
470543.16 3872209.2 3.1784739
470526.72 3872199.5 -0.95603532
470561.69 3872186.5 2.2314043
470561.69 3872186.2 2.3034046
470561.59 3872186.5 2.3831754
470561.44 3872186.2 2.0526683
470547.56 3872206.5 3.2548356
470547.47 3872206.5 3.2400649
470547.41 3872206.2 3.2922444
470547.44 3872206.2 3.3607121
470547.69 3872206.2 3.3753214
470547.81 3872206.2 3.2626286
470515.28 3872205.5 5.0647612
470515.12 3872205.5 5.0849094
470515.38 3872205.5 5.0211315
470514.91 3872205.2 5.1792693
470542.88 3872209.2 4.2969346
470511.91 3872208.5 1.5245607
470546.91 3872206.2 4.2548666
470495 3872187.2 -2.0082068
470495.38 3872187.2 -2.0241821
470495.19 3872187.2 -2.0412812
470533.09 3872209.8 5.0072064
470497.62 3872200.8 2.9953072
470497.56 3872201 2.8856583
470497.56 3872201 2.7774923
470497.56 3872201 2.7014005
470497.44 3872201 2.6082096
470499.75 3872184.5 -2.054024
470499.75 3872184.5 -2.1325014
470499.47 3872184.2 -2.1267698
470499.59 3872184.5 -2.3308918
470499.62 3872184.2 -2.4771709
470499.59 3872184.5 -2.194592
470499.66 3872184.2 -2.2902203
470499.5 3872184.2 -2.01422
470499.69 3872184.5 -2.2737961
470485.81 3872187.8 -1.4893353
470485.5 3872187.8 -1.489816
470485.66 3872187.8 -1.488221
470548.47 3872206.5 0.95292521
470513.78 3872186.5 -2.2385261
470513.78 3872186.5 -2.3999968
470513.88 3872186.2 -2.3771329
470513.72 3872186.2 -2.4164011
470513.47 3872186.2 -2.2221107
470513.84 3872186.2 -2.2696905
470513.72 3872186.2 -2.0764265
470546.62 3872206.5 5.3263564
470546.88 3872206.2 5.2715244
470499.09 3872189.8 -1.1050978
470480.59 3872191 0.20468128
470520.81 3872208 2.6318145
470520.81 3872208 2.992871
470520.78 3872208 2.5922134
470520.5 3872207.8 2.9925826
470503.56 3872187 -1.4637462
470562.22 3872186.2 0.51140487
470562.16 3872186.2 0.70169842
470562.12 3872186.2 0.81844038
470561.94 3872186.2 0.61002803
470548.12 3872206.5 1.6168557
470548.25 3872206.2 1.6213803
470548.31 3872206.2 1.73133
470548.28 3872206.2 1.808695
470513 3872186.5 -1.2515273
470513.12 3872186.2 -1.2500786
470513.09 3872186.5 -1.037342
470513.28 3872186.5 -1.4767326
470513.09 3872186.5 -1.3002933
470513.25 3872186.5 -1.0132314
470533.91 3872210 2.9924688
470515.69 3872205.2 3.7926099
470515.53 3872205.2 3.6693907
470515.81 3872205.5 3.7018433
470515.69 3872205.5 3.6438093
470515.88 3872205.5 3.6559637
470515.5 3872205.2 3.5842228
470515.88 3872205.5 3.6023631
470515.66 3872205.2 3.5897114
470515.81 3872205.2 3.9790208
470515.41 3872205.5 3.8301842
470498.78 3872190 0.3851122
470552.44 3872186.8 1.7291169
470526.53 3872199.5 -1.1539141
470526.69 3872199.5 -1.1098258
470484.41 3872187.8 1.0036753
470482.78 3872188 5.9551816
470561.75 3872186.5 1.7592227
470480.84 3872188 10.208507
470515.34 3872205.5 4.6826539
470515.06 3872205.2 4.6327791
470515.12 3872205.5 4.9828057
470515.03 3872205.5 4.971252
470515.12 3872205.5 4.8993678
470514.91 3872205.5 4.9987712
470515.31 3872205.5 4.9859281
470515.06 3872205.2 4.6251917
470498.25 3872189.8 1.0445712
470483.94 3872187.8 2.1195927
470484.16 3872188 2.1321504
470484.09 3872187.8 2.1733224
470484.22 3872188 2.1955934
470542.72 3872209.2 3.892597
470547.09 3872206.2 3.9046741
470533.12 3872209.8 4.7363591
470499.62 3872184.2 -2.5183992
470485.5 3872187.8 -1.7171608
470485.81 3872187.8 -1.7193937
470485.81 3872187.8 -1.6936677
470542.06 3872209.5 4.8779564
470542.28 3872209.2 4.8544869
470542.12 3872209.5 4.8007402
470542.19 3872209.5 4.7376904
470542.22 3872209.5 4.7472959
470542.34 3872209.5 4.7237482
470546.75 3872206.5 4.6548448
470546.47 3872206.5 4.7666559
470513.47 3872186.2 -2.5209093
470494.78 3872187.2 -1.915163
470494.62 3872187.2 -1.7439413
470494.88 3872187.2 -1.7171614
470499.09 3872184.5 -1.9502486
470499.28 3872184.2 -1.8663081
470499.25 3872184.2 -1.7854511
470499.19 3872184.2 -1.8103925
470539.09 3872207 1.1811764
470520.66 3872208 2.3278236
470520.78 3872208 2.4541614
470562.16 3872186.2 -0.12206661
470562.19 3872186.2 0.24574354
470562.03 3872186.2 0.0010557186
470561.91 3872186.2 -0.13921884
470512.94 3872186.5 -1.7854263
470513.16 3872186.5 -1.8162285
470512.97 3872186.2 -1.695051
470513.12 3872186.2 -1.711971
470513 3872186.5 -1.9520097
470493.94 3872187.5 -0.75533372
470494.06 3872187.5 -0.74380505
470494.06 3872187.2 -0.76099187
470493.94 3872187.2 -0.77003717
470494.25 3872187.2 -0.76637894
470494.03 3872187.2 -0.78233767
470493.94 3872187.2 -0.79046535
470515.75 3872205.5 3.1500232
470515.84 3872205.2 3.0852149
470515.62 3872205.2 3.2582893
470479.94 3872196.5 0.52579951
470520.09 3872208 3.1135974
470543.06 3872209.2 2.0131149
470561.72 3872186.2 1.3700986
470561.5 3872186.2 1.4302301
470561.53 3872186.2 1.269308
470559.41 3872203 5.7873254
470547.47 3872206.2 2.0083714
470535.47 3872204.5 -1.5692818
470535.69 3872204.5 -1.5643052
470515.09 3872205.5 4.3887539
470515.16 3872205.5 4.4933729
470570.62 3872186 1.4828751
470498.06 3872190 0.59165996
470538.12 3872206.8 3.2767828
470519.53 3872208 4.4444079
470484.09 3872187.8 1.751236
470483.97 3872187.8 1.740819
470484 3872187.8 1.8503461
470484.28 3872187.8 1.8660413
470484.31 3872188 1.8784437
470484.09 3872188 1.8918777
470484.38 3872188 1.8854513
470483.91 3872187.8 1.876097
470484.34 3872188 1.9823544
470484 3872187.8 1.9620001
470484.12 3872188 1.9690711
470484.09 3872187.8 1.8503077
470483.91 3872188 1.8555516
470484.25 3872188 1.862839
470484.19 3872188 1.7006432
470542.59 3872209.2 3.2653656
470542.47 3872209.5 3.3106043
470526.34 3872199.5 -0.9729802
470561.22 3872186.5 2.2495797
470561.28 3872186.5 2.3216701
470561.19 3872186.5 2.4001541
470560.91 3872186.2 2.068222
470547.25 3872206.5 3.0757272
470514.88 3872205.2 5.014143
470514.69 3872205.2 5.0215812
470514.84 3872205.2 5.0131121
470525.78 3872205 0.73899812
470542.28 3872209.5 4.4626741
470511.69 3872208.5 1.5016962
470546.62 3872206.5 4.300024
470546.41 3872206.5 4.3193955
470546.81 3872206.5 4.2793608
470494.62 3872187.2 -2.0166879
470494.5 3872187.2 -2.0111263
470516.25 3872205.5 1.8642095
470516.03 3872205.2 1.8431551
470532.81 3872209.8 5.047698
470498.91 3872184.2 -2.0939486
470499.22 3872184.5 -2.2010665
470498.91 3872184.2 -2.1329293
470498.91 3872184.2 -2.1908805
470497.38 3872201 2.7904866
470484.91 3872187.8 -1.4582614
470485.19 3872187.8 -1.4941262
470485.19 3872187.8 -1.3716172
470485.06 3872187.8 -1.3716516
470513.16 3872186.5 -2.0531266
470513.09 3872186.5 -2.3476777
470512.91 3872186.2 -2.4070725
470552.5 3872203.5 0.56055611
470515.72 3872205.5 2.6112053
470515.72 3872205.2 2.8613927
470480.12 3872196.5 -0.43779257
470519.94 3872207.8 2.6061761
470503.06 3872187 -1.4143025
470484.44 3872188 0.13527644
470484.5 3872187.8 0.12209619
470484.88 3872188 -0.43352318
470484.69 3872188 -0.38479826
470484.53 3872188 -0.3810817
470484.69 3872187.8 -0.29746187
470484.78 3872187.8 -0.16776997
470484.44 3872188 -0.49215138
470542.94 3872209.2 1.7540898
470543.09 3872209.2 1.7094448
470542.94 3872209.2 1.6638629
470561.81 3872186.2 0.53352571
470561.75 3872186.2 0.72419226
470561.66 3872186.2 0.75867587
470561.72 3872186.2 0.91379148
470561.44 3872186.2 0.63669699
470561.72 3872186.2 0.589082
470482.72 3872188 4.6207719
470482.88 3872188 4.6236377
470482.84 3872188.2 4.716651
470547.75 3872206.5 1.6030003
470547.41 3872206.2 1.5905025
470547.41 3872206.2 1.6953652
470547.53 3872206.2 1.7697093
470547.56 3872206.5 1.7618482
470547.84 3872206.2 1.7983762
470547.53 3872206.2 1.7818124
470512.41 3872186.2 -1.170534
470512.56 3872186.5 -1.456089
470512.69 3872186.2 -1.3851547
470512.56 3872186.2 -1.1164815
470512.66 3872186.2 -1.1257755
470533.5 3872209.8 2.6624439
470515.38 3872205.5 3.8779747
470515.16 3872205.2 3.8242321
470515.03 3872205.5 3.5315018
470515.34 3872205.5 3.7726164
470515.31 3872205.5 3.6545198
470515.31 3872205.5 3.8259768
470552.06 3872186.8 1.6605568
470498.12 3872190 0.43690914
470498 3872189.8 0.33249152
470538.28 3872206.8 2.9872897
470519.41 3872208 3.5239968
470542.81 3872209.5 2.88499
470542.88 3872209.2 2.8900788
470484.31 3872188 1.0028646
470483.94 3872187.8 1.0045621
470484.22 3872187.8 1.0218935
470484.06 3872187.8 1.0129551
470484.09 3872187.8 1.1026733
470483.97 3872187.8 1.0954908
470484.25 3872188 1.0311432
470484.19 3872188 1.3899368
470484.28 3872188 1.1593989
470484.12 3872187.8 1.1503785
470483.94 3872187.8 1.4175004
470484.22 3872187.8 1.2155858
470484.19 3872188 1.2282553
470484.03 3872187.8 1.2848412
470484.25 3872187.8 1.2892261
470561.28 3872186.5 1.775179
470505.44 3872205.8 4.5278759
470532.91 3872209.8 3.8601983
470514.81 3872205.2 4.941608
470514.66 3872205.2 4.9913869
470497.84 3872190 1.0124639
470488.09 3872212.5 2.2737558
470487.94 3872212.2 2.2554369
470488.34 3872212.2 2.4045982
470488.16 3872212.2 2.3918822
470546.53 3872206.2 3.9334474
470516.06 3872205.5 1.3306888
470515.94 3872205.5 1.0731102
470516.09 3872205.5 1.4670564
470516.03 3872205.2 1.3036021
470532.56 3872209.8 4.9394217
470532.5 3872209.8 4.721509
470532.84 3872210 4.7637725
470532.41 3872209.8 4.7250891
470497.19 3872200.8 2.2470126
470497.03 3872200.8 2.2627845
470497.03 3872201 2.0036671
470496.91 3872200.8 2.2455523
470497.25 3872200.8 2.3808143
470485.34 3872187.8 -1.7176554
470484.91 3872187.8 -1.708281
470485.19 3872187.8 -1.7164944
470485.03 3872187.8 -1.7153525
470485.06 3872187.8 -1.6794012
470485.28 3872187.8 -1.5052423
470543.41 3872209.2 0.012497257
470543.38 3872209.2 -0.021572614
470543.5 3872209.2 0.44319212
470543.41 3872209.2 0.33632189
470562.06 3872186.2 -1.3754196
470548.34 3872206.2 0.14755245
470548.16 3872206.2 0.14062342
470493.91 3872187.2 -1.9624915
470494.31 3872187.2 -1.7376497
470494.19 3872187.2 -1.7085609
470515.69 3872205.5 2.3431892
470515.53 3872205.5 2.269311
470515.53 3872205.2 2.0657816
470515.62 3872205.2 2.0662284
470515.38 3872205.5 2.3005576
470515.47 3872205.2 2.4856687
470515.62 3872205.5 2.1498568
470498.81 3872184.5 -1.9867843
470498.41 3872184.5 -1.6690557
470498.66 3872184.2 -1.9491804
470498.44 3872184.2 -1.8965635
470498.59 3872184.5 -1.7051793
470538.41 3872207 1.3299813
470519.94 3872207.8 2.3914559
470520.09 3872208.2 2.2846818
470503.09 3872187 -1.5416901
470503.34 3872187 -1.5499216
470543.28 3872209.5 1.433378
470561.72 3872186.2 -0.098399661
470561.72 3872186.2 0.26856795
470561.56 3872186.2 0.030239062
470561.84 3872186.2 -0.056613695
470512.84 3872186.5 -1.995527
470512.66 3872186.2 -1.9853283
470512.44 3872186.5 -1.721676
470512.78 3872186.2 -1.6683217
470512.5 3872186.2 -1.6402062
470493.41 3872187.2 -0.80886519
470493.72 3872187.5 -0.77873063
470493.5 3872187.2 -0.79974353
470493.81 3872187.2 -0.77926117
470493.72 3872187.2 -0.78737032
470493.62 3872187.2 -0.79475909
470493.81 3872187.2 -0.80020279
470533.84 3872209.8 2.4579206
470515.12 3872205.5 3.1000335
470515.25 3872205.5 3.3258743
470515.38 3872205.5 3.469214
470515 3872205.2 3.4165123
470552.25 3872186.8 1.4923158
470483.94 3872187.8 0.85128313
470484.12 3872188 0.89396954
470484.19 3872187.8 0.87473148
470483.97 3872187.8 0.86591643
470484.34 3872187.8 0.99127549
470483.94 3872187.8 0.96559519
470484.16 3872188 0.98329568
470484.28 3872188 0.98203719
470484.38 3872187.8 0.64782614
470484.31 3872187.8 0.78179163
470484.03 3872187.8 0.83201075
470484.28 3872187.8 0.61203784
470484.28 3872188 0.66234744
470484.06 3872187.8 0.65240669
470484.22 3872188 0.89619601
470484.22 3872188 0.90817279
470542.88 3872209.2 2.0293543
470561.28 3872186.2 1.3892304
470560.94 3872186.2 1.4035807
470561.34 3872186.2 1.2680837
470505.56 3872205.8 4.0326529
470505.44 3872205.8 4.0209723
470535.22 3872204.5 -1.5736684
470514.59 3872205.5 4.4351969
470514.75 3872205.5 4.3708081
470514.5 3872205.2 4.4787617
470570.22 3872186 1.2350998
470497.53 3872190 0.63264805
470488 3872212.2 1.9532821
470488.06 3872212.5 1.9635364
470488 3872212.5 1.6782957
470488.06 3872212.5 1.5813127
470487.91 3872212.5 1.576754
470483.84 3872188 1.9545749
470483.78 3872187.8 1.8866755
470560.88 3872186.5 2.3387253
470560.5 3872186.5 2.3560829
470560.41 3872186.5 2.0130236
470496.97 3872201 1.7134961
470520.44 3872207.8 0.50864506
470520.44 3872191.2 0.51406997
470487.53 3872212.2 2.9419467
470487.78 3872212.2 2.9532666
470482.94 3872188 2.6732733
470494.09 3872187.2 -2.0143578
470564.47 3872189 3.296556
470515.53 3872205.2 1.9812388
470515.78 3872205.5 1.7018211
470498.59 3872184.5 -2.0177906
470503.28 3872186.8 -2.2929611
470484.75 3872187.8 -1.4576017
470484.44 3872187.8 -1.4662142
470484.59 3872187.8 -1.3764571
470484.81 3872187.8 -1.3662398
470482.75 3872188 3.5934129
470482.88 3872188 3.6012008
470482.78 3872188 3.9729064
470561.47 3872186.2 -0.75623745
470510.72 3872208.2 2.989769
470510.69 3872208.5 2.7809367
470510.56 3872208.5 2.7410071
470512.56 3872186.5 -2.0408957
470512.84 3872186.5 -2.3108261
470512.44 3872186.2 -2.0778131
470552.19 3872203.5 0.58684862
470515.28 3872205.2 2.80866
470515.31 3872205.5 2.6258028
470515.19 3872205.5 2.530313
470533.88 3872193.5 1.7833024
470533.78 3872193.2 1.7606171
470497.97 3872178.8 -1.2922128
470498 3872178.8 -1.340107
470497.91 3872178.8 -1.0787075
470519.78 3872207.8 2.8806016
470502.56 3872187 -1.486616
470502.66 3872187 -1.4993495
470502.66 3872187 -1.3843802
470502.81 3872187 -1.3914543
470502.62 3872186.8 -1.2293251
470535.91 3872206.8 6.2500167
470542.56 3872209.2 1.7342747
470542.5 3872209.2 1.7984766
470542.66 3872209.2 1.7540306
470542.84 3872209.2 1.7332814
470542.75 3872209.2 1.5108073
470542.84 3872209.5 1.5041145
470542.81 3872209.5 1.7101939
470484.03 3872187.8 -0.014244711
470484.22 3872187.8 0.010599484
470484.28 3872188 0.02406859
470484.19 3872187.8 0.11086111
470484.38 3872188 0.1285864
470483.94 3872187.8 0.09172111
470484.03 3872187.8 0.10128924
470484.31 3872187.8 0.11047133
470484.09 3872188.2 -0.38903338
470484.28 3872188 -0.38621664
470484.38 3872188 -0.31605279
470484.28 3872187.8 0.15173002
470484.28 3872188 0.18358895
470484.22 3872187.8 0.23363689
470484.28 3872187.8 0.25192955
470484.19 3872188 0.4332442
470484.19 3872187.8 -0.086480759
470483.94 3872187.8 0.033540335
470484.12 3872188 -0.30630088
470484.03 3872187.8 0.28014725
470561.34 3872186.2 0.55997741
470561.28 3872186.2 0.75096017
470561.22 3872186.2 0.87492204
470560.94 3872186.2 0.60298938
470505.44 3872205.8 3.6045763
470559.22 3872202.8 5.0507631
470547.22 3872206.5 1.5835551
470547.25 3872206.2 1.6842743
470547.38 3872206.5 1.755565
470547.25 3872206.5 1.7577064
470547.34 3872206.2 1.7529497
470547.22 3872206.2 1.9946115
470547.28 3872206.2 1.9062998
470547.09 3872206.2 1.8970037
470512.22 3872186.2 -1.148634
470511.94 3872186.5 -1.4383521
470512.28 3872186.5 -1.4626831
470511.91 3872186.2 -1.217355
470512.12 3872186.5 -1.072453
470533.38 3872209.8 2.9309661
470514.5 3872205.5 3.5447826
470514.53 3872205.5 3.929322
470514.56 3872205.2 3.6087337
470514.66 3872205.2 3.719099
470497.56 3872190 0.49278301
470497.56 3872189.8 0.29698166
470551.47 3872186.8 1.5185965
470497.62 3872178.8 -0.46804997
470497.66 3872178.8 -0.36724964
470519.38 3872207.8 3.7920156
470519.34 3872207.8 3.6250505
470483.72 3872187.8 1.0797969
470483.88 3872187.8 1.3748068
470483.78 3872187.8 1.4839542
470542.34 3872209.5 2.5685158
470560.88 3872186.5 1.7924597
470515.91 3872205.5 0.11085356
470532.72 3872209.8 3.9485247
470532.75 3872209.8 3.6062918
470520.44 3872191.5 -0.37747365
470520.59 3872191.5 -0.37144756
470520.56 3872191.2 -0.4311491
470520.53 3872191.2 -0.32943526
470482.91 3872188 2.4217801
470511.34 3872208.5 1.4718032
470515.69 3872205.2 1.4470413
470515.81 3872205.2 1.3036315
470515.66 3872205.5 1.2962455
470515.72 3872205.2 1.0693796
470515.78 3872205.5 1.0821662
470515.72 3872205.5 1.1332263
470515.62 3872205.5 1.1228641
470515.75 3872205.2 1.4335942
470532.19 3872209.8 4.7693005
470496.84 3872200.8 2.2801647
470543.06 3872209.5 -0.048485849
470542.94 3872209.2 -0.068857983
470543.31 3872209.5 -0.065604046
470542.91 3872209.5 -0.05693261
470543.19 3872209.2 -0.027641131
470543.38 3872209.2 0.14656611
470484.56 3872187.8 -1.7145067
470484.69 3872187.8 -1.7149445
470484.69 3872187.8 -1.514218
470484.53 3872187.8 -1.519151
470484.66 3872187.8 -1.7918565
470482.75 3872188 3.4830072
470482.88 3872188 3.4834027
470482.75 3872188 3.3505721
470510.72 3872208.2 2.3456302
470510.59 3872208.2 2.1756876
470510.56 3872208.2 2.1050298
470510.56 3872208.5 2.0364652
470493.5 3872187.2 -1.9661939
470493.84 3872187.2 -1.9768108
470493.62 3872187.2 -1.9694618
470493.69 3872187.2 -1.6066619
470493.59 3872187.2 -1.6940728
470515.34 3872205.5 2.3190017
470515.09 3872205.2 2.292644
470514.91 3872205.2 2.4164693
470515.06 3872205.2 2.3964937
470515.38 3872205.5 2.1640446
470515.09 3872205.2 2.1711221
470515.28 3872205.5 2.4083061
470498.03 3872184.5 -1.6772667
470498.16 3872184.5 -1.9286311
470498.38 3872184.2 -1.6954087
470497.97 3872184.2 -1.7514725
470497.94 3872179 -1.5032594
470497.91 3872178.8 -1.5005999
470502.5 3872187 -1.599757
470502.62 3872187 -1.5922108
470502.41 3872186.8 -1.6308281
470502.5 3872186.8 -1.6720107
470502.72 3872187 -1.5580831
470502.41 3872187 -1.5316105
470502.69 3872186.8 -1.6565797
470502.5 3872187 -1.5412388
470502.59 3872187 -1.6180849
470502.59 3872186.8 -1.70442
470502.56 3872186.8 -1.5473208
470502.72 3872186.8 -1.5610266
470536.16 3872207 5.6022325
470536.25 3872207 5.5183764
470542.66 3872209.5 1.4666835
470542.78 3872209.5 1.410799
470561.28 3872186.2 -0.071756177
470561.28 3872186.2 0.29346454
470561.38 3872186.2 -0.11060615
470559.19 3872203 4.6841998
470559.19 3872203 4.8047581
470559.12 3872202.8 4.5328259
470505.44 3872206 3.3494525
470511.97 3872186.5 -1.979122
470512.31 3872186.2 -1.9927919
470512.22 3872186.2 -1.6015499
470493.06 3872187.2 -0.84324586
470493.31 3872187.2 -0.82012755
470533.31 3872209.8 2.3446527
470533.19 3872209.8 2.3031266
470533.16 3872210 2.2916296
470514.5 3872205.2 3.4139123
470514.66 3872205.2 3.4210327
470514.47 3872205.2 3.0644567
470514.84 3872205.2 3.0015566
470514.69 3872205.2 3.163729
470514.38 3872205.5 3.3022387
470514.5 3872205.5 3.3879607
470514.56 3872205.5 3.1428576
470569.91 3872185.8 -0.23170605
470551.44 3872186.8 1.2603731
470551.72 3872186.8 1.2419789
470551.81 3872186.8 1.4391059
470497.72 3872178.8 -0.80231845
470497.44 3872178.8 -0.86573297
470497.66 3872178.8 -0.76733792
470497.72 3872179 -0.65290242
470497.62 3872178.8 -0.64366984
470497.53 3872178.8 -0.59884119
470497.66 3872178.8 -0.53857529
470502.09 3872192.2 -0.8002696
470483.81 3872187.8 0.95732826
470560.84 3872186.2 1.4068596
470560.5 3872186.2 1.4266536
470560.41 3872186.2 1.4236228
470560.75 3872186.2 1.2851084
470560.5 3872186.5 1.4570508
470505.34 3872206 4.4828324
470505.34 3872205.8 4.1106653
470505.34 3872205.8 4.4906158
470534.72 3872204.5 -1.5826449
470534.5 3872204.5 -1.5889055
470515.97 3872205.5 -0.90784192
470515.97 3872205.5 -0.55040675
470516.31 3872205.2 -0.58849078
470516.34 3872205.5 -0.68795097
470516.06 3872205.5 -0.75845975
470514.06 3872205.5 4.1057091
470514.25 3872205.2 4.0769839
470513.97 3872205.5 4.0085096
470514.25 3872205.5 4.3239136
470514.03 3872205.5 4.1035008
470569.81 3872186 1.0344629
470569.44 3872186 1.0556135
470497.25 3872190 0.51433837
470497.19 3872190 0.65913618
470537.06 3872206.8 3.4420648
470520.62 3872191.2 -0.89682245
470520.69 3872191.2 -0.88540882
470520.53 3872191.2 -0.79622877
470520.66 3872191.2 -0.68819761
470520.62 3872191.2 -0.51097751
470520.53 3872191.2 -0.52194411
470520.5 3872191.2 -0.64114785
470487.78 3872212.2 1.9717287
470487.81 3872212.5 1.6923871
470487.88 3872212.5 1.9493135
470487.84 3872212.2 1.8106743
470487.66 3872212.5 1.6162373
470487.84 3872212.5 1.5976611
470487.88 3872212.2 1.7196814
470483 3872188 1.8286359
470541.44 3872209.2 3.4189887
470541.66 3872209.5 3.3141794
470541.56 3872209.5 3.3079519
470541.5 3872209.2 3.0959518
470541.84 3872209.2 3.0262353
470541.88 3872209.2 3.1252954
470564.69 3872189 2.2583759
470564.53 3872189 2.2630115
470515.69 3872205.5 0.95325607
470515.62 3872205.5 0.63307041
470496.81 3872201 1.8088685
470496.81 3872201 1.7404821
470496.78 3872201 1.9821368
470496.78 3872200.8 1.9733808
470496.53 3872190 1.6220498
470496.66 3872190 1.6296415
470520.25 3872191.5 0.54339796
470520.34 3872191.2 0.52953476
470520.25 3872191.5 0.72830558
470520.25 3872191.5 0.86304653
470520.16 3872191.5 0.87308532
470520.31 3872191.2 0.92132068
470520.28 3872191.5 0.96406007
470520.38 3872191.2 0.95510465
470520.22 3872191.5 0.9678849
470482.66 3872188 2.5831258
470482.84 3872188 2.591136
470482.62 3872187.8 2.5609052
470482.78 3872188 2.6957638
470482.75 3872188 2.9418244
470487.19 3872212.2 2.8988116
470561.59 3872186.2 -1.5331272
470564.19 3872189 3.1325662
470515.34 3872205.5 1.5591679
470515.22 3872205.5 1.7804681
470514.97 3872205.5 1.6365751
470497.97 3872184.2 -2.029953
470502.5 3872187 -2.1963973
470502.5 3872186.8 -2.219995
470536.31 3872206.8 5.3916097
470484.03 3872187.8 -1.4850141
470484.25 3872187.8 -1.3876324
470483.91 3872187.8 -1.3972504
470561 3872186.2 -0.72090262
470561.19 3872186.2 -0.79332525
470512.12 3872186.5 -2.2098336
470512 3872186.2 -2.0015419
470551.88 3872203.5 0.61207634
