# .PCD v0.7 - Point Cloud Data file format
VERSION 0.7
FIELDS x y z
SIZE 4 4 4
TYPE F F F
COUNT 1 1 1
WIDTH 1530
HEIGHT 1
VIEWPOINT 0 0 0 1 0 0 0
POINTS 1530
DATA ascii
30.805918 -33.144253 0.89537889
30.662697 -33.322197 0.95488495
30.656134 -33.098232 0.97301072
30.671179 -33.470604 0.98965365
30.976978 16.127125 -1.2711266
30.972448 16.397303 -1.2956597
30.925755 16.292725 -1.3272551
30.888977 16.006142 -1.2660465
30.797594 16.093359 -1.287315
30.795809 16.366314 -1.3139529
30.662289 16.293282 -1.3702184
30.658672 16.430656 -1.3837811
30.66148 16.035475 -1.3439929
30.664644 16.162357 -1.3571783
30.739298 16.275757 -1.4453367
30.546921 16.216805 -1.1409984
30.569967 16.416767 -1.4581537
30.74728 16.392851 -1.1901151
30.746315 16.25112 -1.1810108
30.451771 -42.446888 0.8476364
30.421991 -42.268166 0.75104618
30.413563 -42.076603 0.58114737
51.010933 -9.5781612 2.8593264
51.13081 -9.5705805 2.8627794
51.011868 -9.7352324 2.8136377
51.161869 -9.6587238 2.7116032
51.144566 -9.6542473 2.5282013
51.229481 -9.6981478 2.5751777
51.077602 -9.5676069 2.5241241
51.083149 -9.6137915 2.7546177
49.386696 -44.600842 5.1363835
49.411072 -44.666279 5.2791605
49.213253 -44.696102 5.2309594
30.47064 7.3889785 -1.1761659
30.103346 7.2498884 -1.1281272
49.354259 2.8218637 -1.4353929
66.760849 23.117453 4.5756221
66.861755 23.006165 4.9020309
54.62384 4.9139185 3.6219079
48.706985 -53.802914 5.2547517
30.828396 16.796299 -0.44009662
30.856207 16.677797 -0.4316178
37.876415 -6.8456764 -1.0425258
37.58913 -6.8062615 -1.2395304
38.629658 12.485614 -0.286383
35.813103 7.5001664 0.41402674
35.798161 7.8810005 0.38041511
35.521183 7.5970926 -0.4553937
35.804062 7.628264 0.4026117
35.80299 7.7647281 0.39069456
35.694233 7.8741798 0.18507241
35.701851 7.6099715 0.20419939
35.976849 7.7735972 -0.38978541
35.982506 7.5081468 -0.40991077
35.693962 7.7443676 0.19447979
35.686199 7.9750533 0.1572133
35.667435 7.711669 0.075303152
35.667706 7.5777116 0.085581124
35.965347 7.8885846 -0.44615692
35.952225 7.6335988 -0.49297085
35.611034 7.8483057 0.028456891
35.959919 7.7365117 -0.49195781
35.988766 7.5309567 0.33553711
35.598495 7.5017457 -0.15156619
35.627609 7.9678779 0.008175998
49.021713 -44.276413 6.359036
48.58617 -55.426003 1.6219133
30.267908 -43.32291 -2.2892895
37.667244 -6.2457423 0.24878944
37.732162 -6.0362535 0.27067339
37.621269 -6.4488845 0.36877334
37.673306 -6.1986303 0.34997579
37.726818 -6.1292796 0.41062152
37.678082 -6.3787994 0.4299812
37.765858 -6.0037093 0.39993954
37.622551 -6.2166724 0.47540903
37.585461 -6.3562574 0.25960243
37.652973 -6.1176028 0.23707685
21.414885 -6.1909075 -0.33400866
21.20776 -6.1766124 -0.28336677
21.49412 -6.0743871 -0.17369221
21.416018 -6.3037682 0.096356362
21.337381 -6.4195995 -0.060126949
35.784122 8.2041979 1.207186
35.786304 8.0803385 1.2174838
35.785954 8.3422823 1.1959295
35.781406 8.4725313 1.1849822
35.887409 8.3915796 1.3759468
35.87225 8.11835 1.3530644
35.729534 8.3127432 1.0039548
35.703083 8.0525236 1.0209695
35.861248 8.2188826 1.356301
35.970554 8.4829111 1.3075751
35.53495 8.2644138 1.3067789
35.82299 8.4679718 1.3107077
35.936119 8.3340635 1.257567
35.908695 8.1995564 1.2481002
35.506763 8.4509506 1.450398
35.541248 8.3400183 1.4576091
35.574329 8.2224483 1.4653172
35.882111 8.0508823 1.2256203
35.889984 8.0670033 1.058625
35.505955 8.0717621 1.4989668
30.032372 -42.617817 -1.358718
30.020798 -42.569317 -1.1456779
30.044422 -42.517693 -1.0434195
37.954708 -5.7427287 1.0257838
37.886921 -5.8634515 1.0143493
37.855896 -5.9901457 1.046804
37.891582 -5.8360233 1.1127464
37.953495 -5.9872084 1.0155984
90.259109 -0.50657082 2.3855333
90.305702 -0.74266291 2.3674304
30.524845 -33.4706 0.39057979
30.541813 -33.048828 0.42739877
30.515398 -33.23407 0.40972504
30.526318 -33.118015 -0.20301747
30.503256 -33.320438 -0.2237056
30.526617 -33.223621 -0.19907938
30.508499 -33.447048 -0.072515786
30.539978 -33.275898 -0.062167384
30.533838 -33.448589 -0.26561844
30.551533 -33.262226 0.2509684
30.553492 -33.253716 0.051115755
30.612997 16.492626 -1.5790632
30.507681 16.369806 -1.7670475
30.54991 16.460089 -1.8069596
30.505041 16.047806 -1.8936582
30.310326 -42.081066 -0.34181687
30.277933 -42.369194 -0.36800605
30.318846 -42.352371 -0.11940132
30.311848 -42.053471 -0.096189566
30.340363 -42.327633 0.089912392
30.339153 -42.034992 0.11281926
30.37361 -42.23394 0.25915608
30.367723 -42.408047 0.29171929
30.388168 -42.097 0.31728658
30.421894 -42.317345 0.38710085
30.270388 -42.428471 0.10262935
30.210747 -42.45919 -0.38988146
30.31986 -42.274918 -0.19271187
35.75544 7.4222183 -1.5592945
35.777157 7.2918625 -1.5714587
35.769257 7.050272 -1.5868838
30.363026 7.0229349 -1.5809737
30.379383 7.1901574 -1.5996189
30.182949 7.3534493 -1.6386195
66.645737 23.149019 4.2528005
19.222694 7.2722754 -1.9113591
30.865074 -32.643307 1.0150965
30.77564 -32.791065 1.000928
30.831795 -32.989883 1.0318772
30.924294 -32.844944 1.0453485
30.959835 -32.659645 1.0612074
30.954563 16.931932 -0.57003462
30.944065 16.795595 -0.5584662
30.971073 16.536591 -0.53761351
30.928892 16.636328 -0.51496685
30.843737 16.860367 -0.55613196
30.839407 16.575956 -0.61871791
30.791979 16.728622 -0.79214346
30.799162 16.857096 -0.80455154
30.63109 16.790051 -0.94689322
30.643812 16.907578 -0.95815277
30.692291 16.80172 -0.58579391
30.710505 16.722736 -0.65408587
30.723944 16.608925 -0.81502426
30.79455 16.914927 -0.92608219
38.74551 12.150615 -0.56614214
38.651306 12.148947 -0.65335435
30.486765 -41.605709 1.2948881
49.218929 -44.096256 5.7265964
49.008919 -44.242031 5.6926079
49.277035 -44.105442 5.8186989
49.141998 -44.366955 5.7283311
49.477497 -44.037289 5.7738447
49.10358 -44.259541 5.8671169
49.040695 -44.48843 5.8607163
35.653717 7.783061 -0.66167641
35.627609 7.8825927 -0.68856722
35.595783 7.995625 -0.76942068
35.963924 7.6070652 -0.52453655
35.866142 7.5990009 -0.69010425
35.781002 7.6642003 -0.6328218
35.710419 7.9492636 -0.66202706
35.693668 7.5623803 -0.6833809
36.01664 -32.235359 2.0207911
47.96513 -24.69635 -1.9014775
31.021492 -24.749285 -1.8916067
31.014847 -24.937693 -1.8922166
31.02063 -24.573477 -1.890705
37.824818 -6.1889219 -0.90345663
37.781708 -6.111587 -0.8464489
37.679317 -6.0082836 -0.75859058
37.977837 -6.1832442 -0.7938605
37.617001 -6.0649858 -0.684264
37.735512 -6.0702205 -0.62809688
37.644939 -6.0248752 -0.55035114
37.966129 -6.1892099 -0.53689182
38.573799 12.558258 0.71028876
38.643475 12.653137 0.73811507
38.527229 12.666923 0.76840973
21.419977 -6.2547817 -0.7528854
35.722343 8.4255199 0.96988553
35.710957 8.0338278 0.99693143
35.7215 8.1591902 0.98838526
35.725483 8.2833977 0.89600086
35.69157 8.4022436 0.82178295
35.70578 8.0324783 0.84915239
35.731064 8.1503792 0.8275395
35.647766 8.2798252 0.66259897
35.665173 8.1532164 0.67147052
35.52058 8.0616837 0.73419553
35.537296 8.4880352 0.83366066
49.064571 -43.598202 6.9675112
49.056927 -43.523575 6.7074585
48.191936 -15.177804 -0.75376529
48.322731 -15.257526 -0.72998834
58.122532 17.510164 1.6263
30.192064 -42.552475 -1.5890253
30.021767 -42.620586 -1.6066569
30.073206 -42.673302 -1.5269119
30.105764 -42.519276 -1.6415772
37.989201 -5.9106231 0.68546206
37.987457 -5.7751007 0.67528164
37.772167 -5.9631968 0.82200843
37.927891 -5.586813 0.86500829
37.832806 -5.8325343 0.83706659
37.882217 -5.7067151 0.85139626
37.971306 -5.5013571 0.90993899
37.92812 -5.8070927 0.94734365
37.99073 -5.6845164 0.95986855
37.710514 -5.9393935 0.51107705
37.89043 -5.5880656 0.72251385
37.83017 -5.8024621 0.70246536
37.8699 -5.9716868 0.51642501
37.70475 -5.8227091 0.51856506
37.823761 -5.5530767 0.54647118
37.895638 -5.6182752 0.58852416
49.428749 -43.384842 7.5091925
49.359478 -43.384853 7.7244711
35.575718 8.9255009 1.99275
35.617775 8.6309843 1.8301663
35.609795 8.7731009 1.8209704
35.566582 8.8682766 1.7819622
35.703892 8.7104759 1.8210689
30.501596 -33.304787 -0.94147706
38.246277 4.3646755 1.738266
38.253292 4.427177 1.5308143
30.518902 16.023138 -2.3634157
30.514936 16.456915 -2.0990391
30.684319 16.20256 -2.0734785
30.298483 -42.204842 -0.93600869
30.212675 -42.406799 -0.9581511
30.148081 -42.494072 -0.91532832
30.309856 -42.09127 -0.8721323
30.304531 -42.342056 -0.80656302
30.313 -42.043964 -0.77669084
30.224714 -42.471092 -0.77241009
30.094685 -42.46487 -0.55344808
30.342964 -42.178867 -0.51579148
30.162741 -42.359364 -0.73710406
49.396873 -44.632278 4.0192485
49.415474 -44.690533 4.098774
49.17091 -44.759602 4.0733032
49.276951 -44.88055 4.0907178
49.470734 -44.811417 4.0686436
49.408566 -44.687157 4.4887805
30.317141 7.4737868 -2.1649141
30.167238 7.237289 -2.1193867
24.606133 7.3375125 -2.2555959
30.849642 -32.830933 0.67795676
30.863888 -32.65667 0.63434839
30.956078 -32.610828 0.94366485
30.943817 -32.821449 0.92609936
30.685703 -32.904976 0.9894805
30.606035 -32.996487 0.7365036
30.924383 -32.808563 0.81936145
30.931345 -32.563053 0.82945859
30.995745 16.500149 -1.2864885
30.994957 16.644636 -1.2994232
30.97806 16.958624 -1.3308057
30.925369 16.707842 -1.3662705
30.919897 16.842077 -1.3786941
30.921484 16.569069 -1.3530296
30.80702 16.500113 -1.3279679
30.79948 16.773108 -1.3542944
30.793024 16.905479 -1.3668885
30.650837 16.559525 -1.3961077
30.703915 16.942209 -1.2393763
30.709738 16.804043 -1.2260216
30.743448 16.645533 -1.4847114
30.549734 16.677956 -1.183534
30.542953 16.911707 -1.2046968
30.632502 16.932827 -1.3464763
30.555613 16.819675 -1.0097049
30.444191 -41.627308 0.78902632
30.431023 -41.950535 0.76973164
30.421103 -41.736454 0.59878653
30.373331 -41.852055 0.80999798
21.478539 -6.6120915 -2.1012809
51.176636 -9.4999285 2.7274597
35.726925 7.7934465 -1.304037
35.779205 7.6561837 -1.4690424
35.693951 7.7585335 -1.4492031
35.511402 7.5843239 -1.1100323
30.245947 7.9456468 -1.2076763
30.235867 7.7831349 -1.2513111
30.027004 7.6339288 -1.1615039
66.716026 23.579546 4.5512438
66.749939 23.827869 4.5421171
36.195656 -32.078739 1.6360857
36.010159 -32.087608 1.6225971
36.098328 -32.218399 1.5928968
30.785044 17.034502 -0.45810717
30.774113 17.443436 -0.4936552
30.770834 17.161842 -0.46838841
37.940704 -6.4661984 -1.0207396
38.50943 12.539746 -0.18621147
38.57972 12.614808 -0.2749899
38.633228 12.575714 -0.12091473
38.543621 12.683876 0.37671396
38.532902 12.740238 0.20104493
21.027241 -6.2469859 -1.1915163
21.011707 -6.0033975 -1.1497686
21.453215 -6.2618818 -1.2782103
90.03228 -1.2834083 -0.26138729
35.798561 8.0181646 0.36845946
35.788467 8.2775459 0.34549573
35.795116 8.4036789 0.33465916
35.995712 8.2950449 -0.35236892
35.677326 8.1370239 0.16601114
35.991631 8.031867 -0.37142429
35.999969 8.1649179 -0.36207831
35.69931 8.3898182 0.14759836
35.988098 8.4003525 -0.33496061
35.680691 8.2391138 0.13754797
35.673676 8.4905987 0.11878859
35.667549 8.0912313 0.068807021
35.659122 8.352725 0.048831757
35.971527 8.1132574 -0.4660745
35.585911 8.2142754 0.00035492252
35.970768 8.240243 -0.4569715
35.588032 8.4739676 -0.020695671
35.930962 8.342802 -0.45897019
35.530453 8.4618769 -0.16399664
35.52861 8.1007757 -0.13368678
31.581079 -15.016385 -1.3924171
30.120396 -42.558754 -2.2545269
37.818111 -5.6104293 0.20689836
37.687721 -5.9865956 0.23276885
37.674305 -5.7224107 0.21719217
37.830814 -5.5668268 0.30120513
37.674942 -5.9712124 0.45563382
37.78302 -5.6043425 0.42454973
37.629086 -5.856319 0.22163858
37.763561 -5.5066977 0.18496531
37.58725 -5.6455913 0.1759129
37.679935 -5.6388516 0.35385922
37.680176 -5.5762806 0.26779497
37.506905 -5.8940606 0.30185577
37.841881 -5.5173941 0.43000102
21.498535 -5.6325293 0.089326777
21.453289 -5.8645716 0.07231921
21.385075 -5.6986527 0.38838351
35.790966 8.6063509 1.1744828
35.795551 8.8646517 1.1534879
35.889751 8.5305805 1.3875602
35.901924 8.7849779 1.4086953
35.885136 8.9129658 1.4193788
35.976345 8.7453547 1.3287185
35.873394 8.6103754 1.3200769
35.961933 8.9819698 1.3088071
35.921513 8.8225784 1.2861038
35.945797 8.5431957 1.2576965
35.722813 8.578599 1.1030062
49.441158 -43.299255 7.4959259
31.796886 -14.503961 -0.25709939
31.666157 -14.706101 -0.28404793
31.755938 -14.633984 -0.23345061
31.637892 -14.840424 -0.2600368
31.793751 -14.548523 -0.16073656
31.67676 -14.749882 -0.18079545
38.26775 4.4068017 1.4377406
38.049713 4.4391766 1.1762059
30.719873 16.217289 -2.5294635
30.291578 -42.047585 -1.2894059
30.261755 -42.325859 -1.3182631
30.294086 -42.01733 -1.0811504
30.262966 -42.279964 -1.1079909
30.151447 -42.445736 -1.1285133
30.265083 -42.240459 -1.0118723
30.196714 -42.461655 -1.0342941
37.924328 -5.1525531 1.0157617
37.920433 -5.0888205 1.0949943
37.96479 -5.462853 1.1506931
51.533447 -49.173351 3.705914
30.76963 -32.854916 0.4617449
30.68783 -32.980362 0.44470504
30.808769 -32.652004 0.48195189
30.519979 -32.578117 0.16781564
30.612978 16.611635 -1.5912571
30.512911 16.842834 -1.8179606
30.521664 16.961494 -1.8313054
30.745514 16.891781 -1.8946517
30.773932 16.815723 -1.6770959
30.768059 16.516212 -1.6517104
67.121284 32.726425 4.2178645
30.32107 -41.513718 -0.29427281
30.307762 -41.792709 -0.31827542
30.336353 -41.755821 -0.071037807
30.363647 -41.735622 0.13759042
30.392962 -41.636852 0.30694434
30.371199 -41.939716 0.28221801
30.382223 -41.797314 0.34111786
30.390446 -41.520565 0.36360249
30.421799 -41.763153 0.43189657
30.448904 -41.984623 0.45875901
30.4631 -41.682098 0.48355231
30.38798 -41.957195 0.14152467
30.351646 -41.819828 -0.4895964
30.440311 -41.843063 0.49068633
30.339174 -41.832188 -0.17526525
49.300461 -44.434746 4.6643806
30.353861 7.9650726 -1.6734792
30.182455 7.6666589 -1.6725075
19.208208 7.9617672 -1.860096
54.747005 5.0644484 3.085484
36.191692 -32.027641 1.1050501
36.437668 -32.023872 1.1221598
36.262367 -32.069843 1.2338078
36.031567 -32.07304 1.2205493
36.38916 -32.089573 1.3358552
36.128803 -32.076458 1.3250718
36.436874 -32.058502 1.4196417
36.204079 -32.052414 1.4142687
36.00589 -32.10244 1.4575689
30.98008 -32.115448 1.0610887
30.958277 -32.311943 1.0444602
30.983847 -32.473934 1.0769337
30.954041 17.215191 -0.59355623
30.948071 17.35795 -0.60529071
30.965717 17.493614 -0.61700875
30.931261 17.048561 -0.54990923
30.835968 17.404116 -0.60311335
30.843996 17.126682 -0.57936162
30.849346 17.267048 -0.59188706
30.66283 17.012594 -0.60113806
30.657282 17.364519 -0.62816215
30.63722 17.351145 -0.86561984
30.63846 17.111637 -0.84952855
30.856693 17.487406 -0.78148735
30.870867 17.217775 -0.76944292
21.126343 -6.2767892 -1.8514727
21.041479 -6.2225118 -1.9156862
35.665562 8.4360647 -0.71279246
35.630051 8.0308619 -0.68033755
35.65831 8.1671267 -0.69162112
35.663563 8.2816877 -0.71730691
35.652958 8.3935633 -0.805053
35.663528 8.1875315 -0.79962051
35.551807 8.3935509 -0.86014557
35.529972 8.0099478 -0.82539177
35.520523 8.12745 -0.8347792
35.509525 8.2492657 -0.85279864
49.123764 -43.685337 5.7954159
31.022833 -24.05554 -1.8887185
31.009966 -24.235056 -1.8886377
37.596794 -5.9633021 -0.87309819
90.092323 -0.67089427 0.82236248
35.749203 8.9801188 0.95927525
35.75005 8.7105532 0.97751218
35.990746 8.8889427 0.59590816
35.741436 8.583828 0.98589087
35.736675 8.8200626 0.94269234
35.736187 8.666564 0.86833692
35.735451 8.9685822 0.83512336
35.697781 8.5368986 0.81148243
35.721775 8.779747 0.77981228
35.647385 8.5229864 0.64367408
35.644669 8.7789097 0.62393939
35.639748 8.646163 0.63450855
35.529575 8.7732601 0.70805669
35.55743 8.6581116 0.76716638
49.294086 -43.218853 6.9984455
49.105827 -43.341599 6.9747486
48.168438 -14.520304 -0.88668358
48.206844 -14.763543 -0.70784563
38.082825 4.0444498 0.7775532
38.255116 4.0839467 0.98421478
38.36132 4.106111 0.89992225
38.342392 4.2028756 0.92225242
38.36808 4.2336407 0.687846
58.198551 18.402946 1.6918521
58.008392 18.305077 1.6148299
30.257195 -42.353069 -1.5647299
30.281603 -42.083832 -1.5359309
30.177021 -42.495327 -1.5049357
30.236275 -42.472786 -1.6454175
30.325855 -42.292984 -1.6240666
30.231817 -42.33012 -1.7241404
30.282125 -42.254936 -1.9920146
37.966377 -5.2460647 0.63524193
37.949871 -5.109345 0.6247716
37.902561 -5.0983071 0.951433
37.970268 -5.4110065 0.82477176
37.994858 -5.1548615 0.85048378
37.872086 -5.4290304 0.57043713
49.492004 -44.89386 3.4274709
35.607204 9.3229647 1.9647017
35.627316 9.0703535 1.9855363
35.593407 9.0315428 1.804196
35.729904 9.1974869 1.7999482
35.82608 9.3477249 1.7949009
35.810387 9.4698572 1.7866557
67.209671 32.804653 3.8641918
30.315454 -41.922314 -0.90790415
30.31488 -41.617825 -0.87814033
30.32766 -41.809509 -0.84380895
30.333788 -41.513855 -0.81433731
30.33687 -41.755718 -0.74761963
30.333887 -41.990643 -0.7235561
30.349888 -41.936512 -0.56064367
30.335148 -41.509304 -0.59016025
49.230297 -44.499043 4.0012527
49.426476 -44.394299 4.1147027
30.499701 7.9273591 -2.2154229
30.308508 7.8221149 -2.200912
30.163414 7.5439773 -2.1527464
34.601604 -9.4798937 1.9226706
34.593903 -9.4985342 1.5007521
54.895302 5.4350467 2.6705971
54.779236 5.4185128 2.5459023
36.413303 -32.067261 0.98001963
36.174812 -32.07877 0.95978737
36.448929 -32.082577 0.65251493
36.407722 -32.048561 0.53045696
30.832663 -32.031261 0.53625637
30.837286 -32.253387 0.51785648
30.828878 -32.452625 0.50036788
30.874348 -32.446644 0.65230006
30.872828 -32.007782 0.68820274
30.859169 -32.22237 0.66963077
30.958286 -32.401955 0.9607895
30.945805 -32.178795 0.97861314
30.619856 -32.323193 0.78741074
30.625305 -32.100048 0.80433804
30.996159 17.055428 -1.3363842
30.998501 17.344481 -1.362524
30.972282 17.241161 -1.3567709
30.93136 17.402615 -1.43226
30.929821 17.116598 -1.4050859
30.796818 17.044128 -1.380883
30.80665 17.462698 -1.423123
30.805128 17.17907 -1.3948829
30.712196 17.211464 -1.2673697
30.711817 17.347692 -1.2811186
30.665337 17.475729 -1.1032747
30.642162 17.313332 -1.3790646
30.7537 17.445492 -1.257561
30.437981 -41.129894 0.52795804
30.431311 -41.407368 0.50528049
30.443117 -41.048355 0.63507879
21.44606 -6.086925 -2.1330678
21.247276 -6.1810932 -2.1224358
35.773403 8.0281639 -1.2353836
35.566105 8.2376862 -1.0680646
49.353077 -43.606689 5.1674652
49.404964 -43.932888 5.1651902
49.267864 -43.849831 5.1203904
49.077721 -43.5313 5.190434
49.118027 -43.902996 5.2032914
30.146357 8.0446835 -1.1932772
30.144094 8.1839352 -1.2073362
30.01556 8.1579742 -1.2097695
38.322918 3.9324846 -1.0478139
49.120003 -45.305462 1.7933047
49.134514 -45.010311 1.801733
21.396296 -5.612947 -1.4479045
35.777157 8.8005877 0.29933399
35.775848 8.6685305 0.31088006
35.981731 8.5610676 -0.33242062
35.685246 8.7859583 0.11871692
35.685051 8.5172634 0.13832697
35.688984 8.9182558 0.10904215
35.993706 8.7027311 -0.32284501
35.994286 8.8020353 -0.30721352
35.655113 8.9977884 -0.0010747719
35.641659 8.7290564 0.020128813
35.629295 8.6099072 0.029703338
35.966805 8.9265404 -0.37323305
35.659584 8.897357 -0.0045419424
35.973503 8.502408 -0.43880358
35.974545 8.6369829 -0.42953238
35.517967 8.7148046 -0.18414095
35.53096 8.593029 -0.17496544
35.516315 8.9587231 -0.20446548
35.650501 8.7204123 0.36633903
35.586216 8.999444 -0.38439026
48.073212 -14.691029 -1.0009055
48.125065 -14.84803 -1.0175928
38.106567 4.0279913 0.13292694
38.12413 4.1658454 0.14379917
38.231808 4.0526738 0.058529343
38.11776 4.1653013 -0.12309542
38.302723 4.1863413 -0.032452822
38.181862 4.2859058 0.47487658
38.116848 4.2421103 -0.19770309
38.073036 4.3372951 -0.14452936
38.032856 4.4051666 0.1486796
31.817776 -14.718722 -1.4750737
31.618595 -14.880883 -1.4463177
31.669733 -14.786271 -1.4549139
31.508936 -14.847937 -1.3862852
31.635542 -14.523188 -1.4119374
31.983366 -14.568545 -1.2347432
31.622343 -14.848544 -1.1721766
31.513206 -14.776167 -1.2868277
43.48856 -52.031731 6.032403
30.230633 -42.158012 -2.2952127
30.216511 -42.028515 -2.1143045
30.210726 -42.336784 -2.2295215
30.02482 -42.442131 -2.0252731
37.516369 -5.4783206 -0.20524396
37.581551 -5.2148504 -0.22538587
37.614956 -5.0997052 -0.23431014
37.544582 -5.2090507 0.051195092
37.78373 -5.0483904 0.1735386
37.605339 -5.078877 0.065075427
37.697098 -5.4577274 0.20061386
37.737202 -5.1823854 0.18287231
37.550888 -5.312583 0.15834114
37.716892 -5.1320949 0.27827179
37.741226 -5.4267063 0.29638726
37.747738 -5.0046058 0.26809576
37.521507 -5.438098 0.14573455
37.837807 -5.4935069 0.36205009
37.723072 -5.3175745 0.3576878
37.569065 -5.2373176 0.24393223
37.675449 -5.1840329 0.40426749
37.731449 -5.465662 0.41916072
37.70274 -5.2845063 0.46941456
37.638634 -5.3520684 0.18627253
49.006786 -44.700653 2.5601587
35.784439 9.2591457 1.1204702
35.78513 9.0008736 1.1417403
35.908047 9.1592016 1.4398389
35.850716 9.4146643 1.4608762
35.886974 9.0210648 1.428965
35.977211 9.2704401 1.3709512
35.997826 9.4082098 1.3813777
35.992954 9.0184107 1.3502779
35.95985 9.1103439 1.3192791
35.714462 9.3606863 1.0433401
35.827877 9.4064827 1.0645871
31.721788 -14.213272 -0.2237222
31.823906 -14.386127 -0.24241036
31.844358 -14.285398 -0.19053328
31.949903 -14.480349 -0.17025648
31.716532 -14.487998 -0.11217325
31.763754 -14.125322 -0.071482062
31.813477 -14.279694 -0.091833733
31.823923 -14.015394 -0.18706341
31.80789 -14.139065 -0.20069246
31.64897 -14.074684 -0.2664617
31.627504 -14.341346 -0.2321222
31.631218 -14.306534 -0.33640262
30.303343 -41.500938 -1.4755427
30.292091 -41.746471 -1.259805
30.310646 -41.736717 -1.0531241
30.270815 -41.979813 -1.4501683
30.296455 -41.536892 -1.1667668
30.269035 -41.973904 -1.1943836
37.971878 -4.7733026 1.0547633
37.884819 -4.8194499 1.1238781
37.873951 -4.9539075 1.1100444
37.927711 -4.7170005 1.1806643
49.443474 -44.046215 3.6915143
54.595272 5.479032 2.0780923
54.63216 5.3681407 2.0711515
36.106937 -32.074955 0.43117744
30.511847 -32.009415 -0.20764352
30.506453 -32.222992 -0.22881015
30.545727 -32.12574 -0.090879589
30.533627 -32.344204 -0.11262223
30.545364 -32.012054 -0.020534217
30.531155 -32.227711 -0.042052068
30.562674 -32.177784 0.046768982
30.54945 -32.384499 0.02618389
30.550863 -32.299824 0.085591175
30.566431 -32.095715 0.10595786
30.573051 -32.088707 0.34460241
30.558876 -32.292564 0.32776725
30.881964 -32.291767 0.4902896
30.74243 17.268221 -1.5505968
30.627813 17.199137 -1.6343803
30.582985 17.373816 -1.6540837
30.549326 17.300882 -1.8942291
30.546854 17.062588 -1.8693991
30.780312 17.11673 -1.7026086
67.43869 33.166981 4.2244921
67.459656 33.434105 4.2138057
30.328321 -41.229103 -0.27025822
30.333317 -41.467979 -0.048417408
30.340544 -41.196712 -0.026432091
30.36055 -41.445923 0.160198
30.366142 -41.170834 0.18212903
30.394449 -41.353703 0.32932904
30.39996 -41.063885 0.35241002
30.414053 -41.223114 0.38824558
30.418795 -41.470467 0.45548597
30.418674 -41.004826 0.21253011
30.417826 -41.329082 0.188693
30.376295 -41.368999 -0.2961829
30.376198 -41.132401 -0.4388395
30.406418 -41.03957 0.46295202
30.354813 -41.38744 -0.15806822
49.481869 -43.78252 4.6576986
54.574547 3.648201 -1.8229213
30.16498 8.2243137 -1.7335788
19.167061 8.3828278 -1.7177418
36.431404 -31.959232 1.0363756
36.018318 -31.983297 1.018553
30.973391 -31.749683 1.0145649
30.968115 -31.895061 1.0788985
30.986645 -31.676275 1.097277
30.97748 17.790733 -0.56412917
30.963449 17.924023 -0.57496411
30.930361 17.603548 -0.59691584
30.847351 17.820801 -0.64015317
30.848764 17.682047 -0.62809485
30.763897 17.843967 -0.52863431
30.772848 17.995396 -0.54277283
30.765808 17.582645 -0.50542337
30.786007 17.859472 -0.89663357
30.794737 17.730604 -0.88529247
30.643557 17.511581 -0.99794346
30.672838 17.847067 -0.65604371
30.646442 17.735764 -0.8913191
30.633347 17.597754 -0.88217181
30.796072 17.58762 -0.96835047
21.370298 -5.534328 -1.5471098
21.169687 -5.9741721 -1.6571187
35.654259 8.8261251 -0.74313587
35.674286 8.5622854 -0.72288585
35.659191 8.6896362 -0.73252016
35.647923 8.9558964 -0.75321108
35.694386 8.7973251 -0.84057289
35.621616 8.5151253 -0.81359464
35.514786 8.6381168 -0.87843019
35.601562 8.9139404 -0.90914279
35.593487 8.7844467 -0.89725572
35.533398 8.5066652 -0.87755501
35.699726 8.6303043 -0.62225831
35.725365 8.9314327 -0.56750369
49.1036 -43.429131 5.7585034
49.04002 -43.167645 5.7634635
49.073273 -43.276443 5.7195549
31.672321 -14.597463 -1.5822763
31.610991 -14.981606 -1.5271941
31.610716 -14.860768 -1.5295438
31.682617 -14.738066 -1.5247707
38.123806 4.177496 -0.8354612
38.051857 4.2857537 -0.93320769
38.261272 4.067872 -0.93197638
43.448841 -52.143394 5.9304757
30.284534 -42.242622 -2.5073192
30.245541 -42.340202 -2.7030354
31.009514 -23.550962 -1.8864508
31.019398 -23.719591 -1.8874674
31.020599 -23.882454 -1.8880157
90.145882 -0.43423286 0.84303081
90.100578 0.036516797 0.88163191
35.740303 9.1098347 0.95031565
35.746891 9.3693972 0.93291551
35.738224 9.4851389 0.90604687
35.727314 9.1836042 0.8311013
35.756599 9.3214369 0.82107365
35.733887 9.0551128 0.84034002
35.739124 9.4750519 0.79786223
35.622128 9.2763233 0.58647567
35.635864 9.0215874 0.60551381
48.12648 -14.224753 -0.85076541
48.217003 -14.493875 -0.67808169
48.13858 -14.088901 -0.93351936
31.541183 -14.108611 -0.6416111
32.853348 4.9239378 0.73822778
32.784153 4.740715 0.7062096
58.152351 18.584154 1.6305832
49.58403 -33.031395 7.8280349
49.971107 -33.035156 7.7271714
30.28681 -41.790714 -1.5059247
30.223068 -41.770718 -1.9303101
30.255795 -41.603672 -1.9103571
30.282654 -41.521439 -1.8505341
30.344692 -41.909824 -1.5917268
30.323584 -41.525272 -1.6661561
30.291952 -41.977177 -1.6968896
37.971653 -4.9846091 0.61542797
37.782005 -4.9033623 0.93556577
37.97039 -4.6666808 0.96378213
37.773575 -4.757051 0.90386856
49.187244 -44.071373 3.3805346
49.275333 -44.086884 3.4560144
49.339577 -44.122898 3.3217671
35.813236 9.503541 1.9664032
35.811016 9.6498251 1.9550762
35.779072 9.9455709 1.6295621
35.76408 9.8099184 1.6382229
35.790482 9.6724958 1.6477908
35.618114 9.6548386 1.6321176
35.557858 9.7157202 1.5676514
35.709183 9.8992586 1.5536864
35.772465 9.761528 1.5461195
54.630093 5.1649141 1.9821864
30.567032 17.43104 -2.2282629
30.707943 17.276495 -2.1869075
30.306921 -41.147423 -0.99575818
30.343231 -41.371601 -0.85324967
30.315956 -41.035637 -0.82115227
30.323881 -41.213463 -0.78469902
30.340891 -41.170773 -0.68912011
30.35758 -41.480968 -0.71991599
30.344854 -41.300194 -0.67810965
31.097748 -22.834417 0.62799203
31.109581 -22.540846 0.663445
49.487034 -43.833511 4.0676966
49.063198 -43.711727 4.0504479
30.496746 8.0294008 -2.2257776
30.490465 8.4681435 -2.2715068
30.490685 8.2393894 -2.2471583
30.138016 8.1029625 -2.2118104
30.839008 -31.832659 0.55355114
30.85865 -31.616707 0.57338148
30.890566 -31.798876 0.70660955
30.974205 -31.968082 0.99673116
30.938316 -31.802359 0.50534695
30.974571 17.806524 -1.4093163
30.982874 17.662287 -1.3961012
30.970894 17.946836 -1.4223019
30.930309 17.534948 -1.4447964
30.809734 17.875641 -1.4644889
30.807474 17.734377 -1.4502375
30.779348 17.518728 -1.4022509
30.708473 17.897285 -1.3365995
30.706173 17.625843 -1.3087672
30.634384 17.878883 -1.0300708
30.556189 17.739214 -1.2655158
30.554493 17.977375 -1.2874705
30.66297 17.954679 -1.1446207
30.633717 17.553743 -1.3995456
30.853991 17.89101 -1.253636
30.45439 -40.627052 0.52468783
30.440542 -40.887901 0.50317699
30.475531 -40.683662 0.84507471
30.451435 -40.70607 0.65296268
21.285732 -5.7510643 -2.1450319
35.999382 8.8423967 -1.2642723
35.96714 8.7458048 -1.2703987
35.963276 8.6219959 -1.2778584
35.902351 8.9805155 -1.2482792
35.617435 8.8628788 -1.0523199
35.574898 8.6289635 -1.0641102
49.237228 -43.267498 5.3888187
49.166634 -43.111259 5.1578531
49.107662 -43.366749 5.1081471
49.27116 -43.157757 5.1309333
49.056503 -43.190453 5.0867395
30.25079 8.6831779 -1.2794198
30.268711 8.874259 -1.2546347
38.04493 4.0114646 -1.3624227
38.249134 4.079082 -1.0703577
38.416012 4.0176649 -1.033911
38.054699 4.4850593 -1.2292185
54.85907 6.4541759 3.7774279
54.60537 6.1671419 3.5402246
43.948349 6.4703445 3.8644326
36.000328 18.006519 -0.3992103
32.401546 -5.0693355 -1.3991252
32.172764 -5.0428104 -1.3792944
49.350933 -44.894291 1.7908137
49.026474 -44.668797 1.8737091
49.21838 -44.516964 1.8598734
49.253628 -44.885651 1.8898981
49.302387 -44.697651 1.8830503
49.347111 -44.515602 1.8840712
21.39122 -5.4997549 -1.3458225
35.770069 9.1887197 0.26501018
35.767033 9.3205481 0.25331274
35.691711 9.1758156 0.090180963
35.696587 9.4480972 0.070197158
35.999474 9.0604572 -0.28968865
35.998119 9.4640112 -0.26220992
35.685505 9.2775059 0.059638269
35.664543 9.3839684 -0.031382069
35.650948 9.1266012 -0.010982958
35.975338 9.189146 -0.35603017
35.985085 9.0122337 -0.40466183
35.592125 9.2389593 -0.082886301
35.940186 9.3663816 -0.38950911
35.954468 9.4727573 -0.35594511
35.568218 9.4544106 -0.084243089
35.511292 9.3412914 -0.23615776
35.514042 9.083766 -0.21477424
35.99258 9.0380058 0.49555165
35.560364 9.3380365 -0.41426697
35.656132 9.497366 0.29988188
30.74626 -32.655495 -2.1818473
31.920172 -14.107598 -1.2085016
31.978914 -14.252901 -1.2065169
30.212521 -41.538399 -2.4274135
30.250315 -41.891151 -2.4673672
30.24197 -41.56546 -2.2257395
30.238609 -41.863537 -2.2606204
30.254944 -41.777283 -2.0843461
30.203674 -41.89299 -2.0402987
30.254261 -41.628662 -2.0086775
37.65554 -4.9654436 -0.24477533
37.680729 -4.7093921 -0.26398191
37.792492 -4.5885248 0.11730635
37.643559 -4.9654875 0.077226602
37.747971 -4.70187 0.10528335
37.977509 -4.9408784 0.16217692
37.823875 -4.968812 0.1992916
37.827312 -4.5048957 0.16440731
37.814682 -4.7028618 0.2154336
37.724434 -4.8832321 0.27555239
37.812782 -4.6227927 0.2996943
37.855396 -4.5114117 0.30981165
37.97723 -4.8316092 0.35819423
37.587742 -4.7819829 -0.47170803
37.709385 -4.6688466 -0.46796006
37.785706 -4.7758398 0.33755851
37.678932 -4.9797821 0.3758454
37.744949 -4.8738151 0.38371712
37.824413 -4.629817 0.40594828
37.712929 -4.8190699 0.070122972
49.235573 -44.247879 2.5081992
49.058517 -44.123287 2.590472
49.252598 -44.389801 2.5669181
49.300766 -44.12981 2.5878317
49.383717 -44.308144 2.5857179
49.438816 -44.055416 2.6066415
49.031036 -44.390495 2.5589166
49.376991 -44.408279 2.5751283
49.41283 -44.15274 2.5952086
35.795506 9.5347605 1.0983925
35.809998 9.9330854 1.0664062
35.783722 9.7919369 1.0766292
35.942036 9.5478535 1.3924299
35.963375 9.7746143 1.0847902
35.507595 9.9787054 1.0320867
31.737284 -13.863654 -0.039540485
49.925617 -34.752888 3.59636
30.293255 -41.192673 -1.4449672
30.302876 -41.477207 -1.2327994
30.304474 -41.18306 -1.2038261
30.312626 -41.453487 -1.0254005
30.309031 -41.011929 -1.3532976
30.304916 -41.346634 -1.3864062
30.310535 -41.074673 -1.4957964
30.309547 -41.06448 -1.1383442
49.269741 -43.782944 3.9598699
49.464218 -43.862553 3.6463354
30.083624 8.4024858 -2.7163935
54.511993 5.9518642 2.0734868
54.679356 5.8215847 2.0443547
30.524595 -31.805416 -0.18889271
30.526024 -31.590696 -0.1677676
30.54142 -31.696075 -0.048823256
30.549437 -31.9109 -0.069701388
30.535185 -31.576775 0.022298846
30.542728 -31.790791 0.0012724448
30.567526 -31.734648 0.09070573
30.579041 -31.530739 0.11100977
30.564665 -31.960358 0.068329655
30.579679 -31.879574 0.12750556
30.530634 -31.757017 -0.27805337
30.737047 17.524412 -1.5773445
30.607798 17.948444 -1.7101808
30.546656 17.808134 -1.9015151
30.580976 17.85124 -1.7033534
30.54796 17.685034 -1.9341488
30.74267 17.696922 -1.9767432
30.751621 17.835855 -1.9909912
30.782515 17.57291 -1.7412947
52.422504 -38.980473 4.6944871
52.163097 -38.538044 4.6635928
52.349281 -38.515686 4.6230884
52.477249 -38.569462 4.6054435
30.327969 -40.936916 -0.24618968
30.339474 -40.663185 -0.22271664
30.3643 -40.906357 -0.0018595384
30.369394 -40.622723 0.020992914
30.386841 -40.874767 0.20649265
30.393724 -40.606544 0.22798255
30.419302 -40.503765 0.39743048
30.411169 -40.784626 0.37491336
30.421103 -40.669628 0.43298295
30.408894 -40.932961 0.41138908
30.365999 -40.938305 -0.14111246
30.391094 -40.541924 -0.12467623
49.430447 -45.087139 0.36897466
54.988899 4.1825604 -1.815414
30.163374 8.631424 -1.7763906
19.136686 8.579298 -1.8407289
19.381258 8.5237074 -1.9816773
54.550571 6.1672454 3.0851047
43.700935 6.200119 3.3789837
43.954674 6.2350221 3.3114264
43.595325 6.3394446 3.2828541
43.937103 6.3842545 3.081295
43.537663 6.4810672 3.057904
43.683434 6.430934 3.4096208
30.993181 -31.467941 1.1145577
50.740379 -17.077185 2.1228654
49.717525 -33.663113 5.703887
30.998129 18.33853 -0.62063271
30.997732 18.187105 -0.60828775
30.967289 18.075294 -0.58771855
30.963787 18.495424 -0.62290239
30.843828 18.106651 -0.66497087
30.842672 18.247318 -0.67723709
30.825977 18.452972 -0.67456269
30.757963 18.273108 -0.56647503
30.772295 18.408844 -0.57970518
30.827213 18.111248 -0.76875782
30.715111 18.24678 -0.92197925
30.670494 18.098066 -0.67533183
30.813383 18.047585 -0.58117855
30.804977 18.00326 -0.99424064
30.946772 18.412964 -0.78835714
30.946449 18.075371 -0.77412927
21.334538 -5.4586377 -1.9366596
21.332197 -5.4463792 -1.7252916
90.130722 -0.28383955 -0.65920621
90.143669 -0.059877049 -0.64064896
35.676571 9.2198391 -0.77475005
35.681694 9.3598633 -0.78597075
35.670982 9.4894323 -0.79601032
35.650482 9.0665026 -0.78011316
35.5672 9.015254 -0.92554122
35.582874 9.1402168 -0.93805158
49.00478 -42.718681 5.750761
49.455627 -42.841183 5.8075047
49.39159 -42.720768 5.7935128
49.172012 -42.574558 5.7973442
49.160038 -42.872295 5.784883
49.335201 -42.842308 5.8043003
49.499409 -42.930969 5.9128056
31.509943 -14.27596 -1.5748208
31.613983 -14.450143 -1.5801847
31.541981 -14.145392 -1.5384153
48.133835 -12.010612 3.0513382
48.028004 -12.036623 3.2836049
50.832783 -16.532597 3.3376596
49.833843 -33.437946 6.9826741
49.987255 -33.405804 6.7067542
47.910751 -23.321211 -1.9525565
30.167036 -41.788536 -2.7002599
30.250641 -41.574764 -2.670423
31.018923 -23.372551 -1.8866228
31.019136 -23.03804 -1.8861116
37.506714 -4.658289 -0.69571447
37.619724 -4.5401421 -0.70800376
37.552639 -4.8417478 -0.74336278
37.676262 -4.7245302 -0.73379958
37.546562 -4.8252082 -0.62086338
37.665104 -4.7159939 -0.61499888
37.670387 -4.6424785 -0.52882874
38.831596 14.443919 0.80538255
90.073708 0.53101039 0.92219722
35.565247 9.8519821 0.8963685
35.747047 9.5086899 0.92350477
35.809433 9.7913876 0.90574843
35.753281 9.6144648 0.89719945
35.805607 9.8589058 0.78218943
35.562275 9.9240561 0.77827644
35.739414 9.5850935 0.8021391
35.7486 9.7382689 0.77837306
35.639198 9.9309988 0.70854139
35.701794 9.8190346 0.71497387
35.783554 9.9418068 0.68832004
35.525993 9.9976377 0.69499034
35.719692 9.6535149 0.71302354
35.663723 9.5044546 0.73845834
35.566662 9.7036371 0.81940222
35.929489 9.8159904 0.98685187
35.538574 9.8633194 0.57488143
49.312485 -42.334244 6.7557526
49.301628 -42.259747 6.5885739
48.219463 -13.946321 -0.99637544
48.163197 -13.76623 -0.97259611
48.162628 -13.784369 -0.79846972
48.310005 -13.980443 -0.62114269
48.135273 -13.850058 -0.90733325
48.157528 -13.604504 -0.88022488
48.401348 -11.598023 4.0370946
32.805279 5.0286226 0.69101614
49.665897 -32.84137 7.8484693
49.796642 -32.852268 7.8015394
49.977116 -32.631737 7.5502262
49.754082 -32.82605 7.513402
30.278931 -41.39056 -1.9802872
30.25318 -41.053455 -1.9405302
30.222256 -41.222004 -1.8648927
30.261276 -41.007202 -1.8393333
30.311642 -41.228012 -1.8156904
30.266376 -41.4277 -1.6125628
30.287024 -41.085205 -1.5838435
49.047318 -43.854099 3.2842968
49.42091 -43.879349 3.2872238
49.158047 -43.97702 3.3718262
49.292538 -43.843536 3.3639152
54.51334 5.8373733 1.5945039
54.621395 5.922534 1.7445253
54.704353 5.7766476 1.8264074
54.755474 5.5010843 1.7087721
54.782646 5.7603197 1.7298683
30.505556 -31.819456 -0.54200542
30.522728 -31.512852 -0.68769568
30.510635 -31.978533 -0.73142499
30.520029 -31.749758 -0.70975918
49.575027 -34.049465 4.0013895
49.861153 -34.086349 4.1199331
34.001324 -17.505201 0.63120151
34.034904 -17.541748 0.75614029
30.580793 17.565872 -2.2452068
30.704224 17.73856 -2.2357256
30.340101 -40.590057 -0.94007957
30.321203 -40.856934 -0.96686274
30.335154 -40.766926 -0.7943266
30.332384 -40.926872 -0.7560721
30.346228 -40.635735 -0.72689587
30.355465 -40.892776 -0.66116041
30.35248 -40.592869 -0.63122696
30.340841 -40.720837 -0.54393768
31.118551 -22.232338 0.69251657
49.375202 -43.124447 4.0941691
49.498299 -43.262642 4.1916757
49.331879 -43.015221 4.4893689
30.481192 8.6788082 -2.2927284
30.480289 8.7827787 -2.3038301
30.392029 8.5233002 -2.1610732
30.384239 8.8731012 -2.1984217
30.141706 8.8320065 -2.2957897
54.578564 6.4182801 2.9861052
54.709934 6.1696272 2.601438
30.847033 -31.402765 0.59057069
30.921091 -31.265099 0.60812652
30.647768 -31.4727 0.85229081
30.6576 -31.262711 0.86844432
43.906937 6.4456978 2.9553199
43.92168 6.4622712 2.8336012
50.773994 -17.158928 1.8713655
49.964809 -33.513313 5.2248044
49.901718 -33.52449 5.0681243
49.664867 -33.637943 5.2824535
49.752861 -33.512032 5.273036
49.585468 -33.785637 5.2950068
30.980532 18.088268 -1.4357377
30.984116 18.385393 -1.4636126
30.912518 18.355627 -1.3749057
30.915874 18.065428 -1.3468702
30.795439 18.014656 -1.4772965
30.802813 18.160192 -1.4923892
30.771297 18.355547 -1.4865332
30.704786 18.314955 -1.3788471
30.702072 18.179695 -1.3647586
30.701916 18.039614 -1.3504589
30.664988 18.331848 -1.1772306
30.641989 18.487188 -1.4793248
30.63958 18.21603 -1.4561524
30.805086 18.145016 -1.0031127
30.476421 -40.061195 0.57114595
30.452192 -40.346302 0.5474022
30.493107 -40.073215 0.88130039
30.475145 -40.36808 0.86316031
30.456511 -40.361965 0.6707052
21.388021 -5.4028244 -2.073905
35.923958 9.1293011 -1.2414834
35.906788 9.3782091 -1.2242217
35.644386 9.3590574 -1.0363888
49.406239 -42.844067 5.4172182
49.219521 -42.549404 5.181859
49.223423 -42.87133 5.1346626
30.259235 9.2691498 -1.33755
30.091518 9.0800886 -1.2629627
30.379324 9.2712765 -1.0377067
48.022785 -12.056507 2.6466775
48.118153 -12.04996 2.5100358
48.006866 -12.113317 2.5456109
38.492256 4.5226464 -1.4591277
43.588203 6.58044 3.8204122
43.263229 -51.616741 5.005856
43.054817 -51.833801 5.114481
30.912685 18.936069 -0.2972388
38.632187 14.25601 -0.087257624
38.734741 14.313245 -0.18826175
38.652306 14.432217 -0.18732868
38.595295 14.498549 -0.1140147
49.078091 -44.345219 1.7769203
49.048717 -44.084709 1.8671374
34.51096 -9.2895203 -1.1517245
35.755527 9.8569269 0.20563591
35.777149 9.5958633 0.229344
35.773335 9.7348881 0.21695563
35.734894 9.9782791 0.19428235
35.672176 9.9732199 0.031560306
35.67524 9.7144585 0.050627716
35.707531 9.5835609 0.060231488
35.995556 9.9967308 -0.22665749
35.71302 9.9341526 -0.075575083
35.622967 9.7717934 -0.06057642
35.654121 9.5118198 -0.041083381
35.696014 9.6847925 -0.068479069
35.982018 9.846324 -0.31257948
35.999977 9.5886993 -0.33128667
35.558029 9.8726091 -0.13262513
35.595421 9.6185598 -0.1139661
35.962967 9.7439594 -0.33878389
35.589645 9.670784 -0.39215815
35.79966 9.512023 0.1348464
49.164986 -42.290382 6.2861509
48.094048 -13.861238 -1.0716494
30.747204 -32.253647 -2.1602204
48.136726 -11.849033 3.5054185
48.14275 -11.5686 3.8267124
48.32473 -11.549406 3.7292266
48.367878 -11.866515 3.7319651
48.324097 -11.908554 3.817951
31.914415 -13.933592 -1.2144097
31.89349 -13.79311 -1.2183594
31.64234 -13.548104 -1.2137171
49.502682 -32.976841 7.468266
52.195122 -39.124176 2.7725813
52.041603 -39.306301 2.9126031
30.277056 -41.03389 -2.3658161
30.250113 -41.262703 -2.3936679
30.227152 -41.215305 -2.1852798
30.215286 -41.418835 -2.0429914
30.26619 -41.160297 -2.0120485
30.272837 -41.010853 -2.1184309
30.264896 -41.47559 -2.1562614
37.75288 -4.4456906 -0.2846438
37.835079 -4.3222151 -0.29515651
37.845428 -4.4626813 0.13060296
37.932777 -4.3397918 0.14333552
37.915142 -4.4539704 0.23890901
37.964172 -4.3225131 0.2514554
37.916462 -4.3888626 0.32083276
37.912899 -4.3798132 0.42911932
37.993073 -4.224462 0.13318983
37.902218 -4.1337137 -0.1087077
49.436501 -43.806297 2.5590072
49.260868 -43.947872 2.5430551
49.488464 -43.916359 2.6463039
49.158344 -43.927143 2.6405962
35.704079 10.044232 1.0516986
30.51862 -31.844145 -1.0470148
38.05547 5.9677906 1.212778
38.173885 5.991024 1.0842378
52.290943 -38.547913 3.591325
30.301287 -40.926155 -1.4174757
30.305815 -40.64286 -1.3885074
30.315523 -40.599064 -1.1459038
30.304382 -40.889385 -1.1749861
30.152168 8.9935141 -2.7001836
54.571777 6.4577622 2.1116741
43.81995 6.4808526 2.3316448
30.51372 -31.006947 -0.23225431
30.509754 -31.219355 -0.2702466
30.528938 -31.165934 -0.12596999
30.531513 -31.381727 -0.14704487
30.546621 -31.27182 -0.0070496779
30.559685 -31.072784 0.012834579
30.53941 -31.478354 -0.027511556
30.548092 -31.161572 0.063532941
30.545616 -31.372639 0.042638507
30.574642 -31.108892 0.15281712
30.578983 -31.326672 0.13125734
30.581284 -31.457563 0.16960533
30.583157 -31.408171 0.3989501
30.523518 -31.371948 -0.49742034
30.539915 -31.225523 0.20670281
49.517017 -33.794186 4.5161781
49.615086 -33.711765 4.9844189
30.792553 18.295677 -1.5051986
30.803961 18.437817 -1.5203036
30.698606 18.312374 -1.6007645
30.533926 18.294069 -1.9532166
30.579756 18.098053 -1.7288464
30.574629 18.471684 -1.7673674
30.568464 18.223993 -1.7414695
30.887115 18.364182 -1.775481
30.877811 18.024027 -1.746935
52.103584 -38.458027 4.6877861
52.458023 -38.437798 4.6304803
52.254219 -38.445225 4.9298997
30.364672 -40.111736 -0.17522885
30.353958 -40.395828 -0.19952577
30.37612 -40.08704 0.064014256
30.377989 -40.360672 0.04237733
30.40756 -40.335598 0.25005916
30.423733 -40.055923 0.27295354
30.433254 -40.233356 0.41938263
30.448149 -40.095795 0.48005146
30.439486 -40.373447 0.45740452
30.388161 -40.420795 -0.38718355
30.403978 -40.118984 -0.36448225
30.414671 9.4703932 -1.714807
30.41684 9.1126051 -1.6781037
30.172594 9.3044872 -1.8495133
29.888577 -49.152237 -0.40038943
29.922855 -49.125282 -0.22233129
29.936668 -49.360664 -0.18321349
29.94949 -49.345798 -0.079456374
29.923367 -49.055389 -0.45795608
43.623199 6.8946357 3.2355325
43.731628 6.758132 3.2266183
43.828243 6.7732191 3.1740775
43.547359 6.6427689 3.0475907
43.56707 6.5459762 3.3973267
43.868851 6.5374136 3.1392617
43.700592 6.7719345 3.016959
43.665745 6.5692515 3.021492
43.257072 -51.815697 4.777473
29.575342 0.23574769 -1.6971109
29.65962 0.49931479 -1.5190917
29.940908 0.45933241 -1.5476687
30.998423 18.774336 -0.65622455
30.991459 18.63162 -0.64453024
30.967426 18.939669 -0.66034079
30.946037 18.584198 -0.56655312
30.869562 18.809082 -0.57170355
30.846031 18.677137 -0.71513754
30.841692 18.524115 -0.70148802
30.827576 18.870525 -0.68819892
30.762825 18.54435 -0.59114319
30.763594 18.838728 -0.59819651
30.762995 18.967379 -0.60972512
30.824661 18.634745 -0.81703639
30.703876 18.754034 -0.96594304
32.420151 -4.7405796 -1.7616352
35.6353 9.8715 -0.82564038
35.660393 9.587925 -0.81490338
35.542404 9.6630383 -0.9046877
35.559612 9.7984571 -0.91694808
35.602329 9.6698513 -0.98598289
35.859005 9.8422604 -0.95218992
35.735806 9.5366564 -0.53660893
49.288776 -42.356651 5.8569832
49.005634 -42.402424 5.8264494
48.446285 -13.502894 -1.5077918
54.579514 5.2379332 -0.97280002
48.241611 -11.696366 3.4983821
48.34602 -11.54312 3.4912734
48.131996 -11.950997 3.1113861
48.213856 -11.82412 3.1015007
48.494663 -11.839676 3.0466683
48.444893 -11.656867 3.2641327
48.124935 -11.974504 3.4649568
48.327129 -11.719543 3.0369837
31.551493 -13.881229 -1.5452141
31.502657 -13.996346 -1.5382512
47.896534 -22.672361 -1.9562036
47.986385 -22.871094 -1.9915628
52.468376 -39.030098 2.4028707
30.257238 -41.02404 -2.6039028
30.270584 -41.335445 -2.6406689
31.018063 -22.871201 -1.8858839
31.024374 -22.718868 -1.8861758
31.013868 -22.554993 -1.8855003
37.555649 -4.4990458 -0.60706913
37.60342 -4.4177895 -0.54743326
37.844242 -4.3015203 -0.73465443
38.835239 14.589731 0.81461585
35.785316 10.313689 0.70862353
35.591255 10.380497 0.71830112
35.917618 10.321208 0.70788789
35.670498 10.456161 0.65381217
35.845039 10.40137 0.64269459
35.961159 10.370735 0.59702736
48.061207 -13.283082 -0.9101671
48.187542 -13.219794 -0.73105401
48.458843 -13.109285 -0.52422905
48.221344 -13.265804 -0.84254616
48.299973 -13.044723 -0.81693006
54.576103 5.7559118 0.93525481
48.366096 -11.438922 4.1517467
48.398472 -11.455395 4.0485663
48.43261 -11.370857 4.3015137
32.797318 5.9888258 0.67880952
32.806431 5.6239266 0.70585197
32.553219 5.8713002 0.75215948
49.920341 -34.105495 3.3132162
49.983124 -34.249672 3.2104216
47.999294 -22.145821 -0.67263877
30.256603 -40.879791 -1.9793704
30.265411 -40.597706 -1.9462802
30.255417 -40.729366 -1.9021745
30.221022 -40.652912 -1.7971102
30.270737 -40.957623 -1.7829752
30.273796 -40.642822 -1.5494471
30.317915 -40.945728 -1.6309841
30.315952 -40.974213 -1.9134542
54.647038 6.3983607 1.8801181
54.770046 6.1737976 1.8251513
54.762413 6.2664242 1.7673217
30.500256 -31.109867 -0.77578145
49.585182 -33.596474 4.3401332
34.391479 -17.169064 0.61598647
30.741077 18.382698 -2.0468404
30.745741 18.245184 -2.0327997
30.810961 18.210436 -2.2532308
52.459911 -38.021072 4.4068689
30.342564 -40.030506 -0.88536209
30.33963 -40.299496 -0.91174054
30.362539 -40.207447 -0.73883313
30.3465 -40.475395 -0.76549989
30.36515 -40.078854 -0.67120308
30.357222 -40.358097 -0.69910032
30.3678 -40.306736 -0.60244983
30.367184 -40.015881 -0.57338208
30.339754 -40.112507 -0.79989415
31.141224 -21.803442 0.73286122
49.484741 -42.937664 4.1173658
49.32515 -42.507385 4.1229095
49.45715 -42.570248 4.1308694
49.475349 -42.637028 4.4769435
30.373913 9.3162098 -2.246253
30.128078 9.2516994 -2.3427639
54.789501 6.8894067 2.7764909
54.781429 6.7016864 2.6437354
29.901419 -49.215927 -0.95611393
29.885803 -49.185429 -0.6483143
29.929888 -49.181591 -0.84178603
43.858688 6.8670788 2.7782197
43.824829 6.9270668 2.9957023
43.643532 6.7126708 2.9296417
43.8022 6.9634919 2.8949807
43.851177 6.9702725 2.7986383
43.610947 6.7188854 2.8099062
43.803669 6.5964818 2.8226109
43.689575 6.73943 2.7451794
43.647617 6.5829005 2.7561755
43.746994 6.6272659 2.9155934
43.632435 6.510159 2.9019969
27.496227 4.934031 -2.0892684
27.146526 4.7680736 -2.3825173
27.413115 4.7381511 -2.1112852
27.010866 4.8512306 -2.3758621
50.751236 -16.574398 1.8321018
49.677074 -33.070164 5.3487267
49.998386 -33.37999 5.0571389
49.574329 -33.168144 5.1150961
43.256271 -51.789536 4.3629174
29.872156 0.20528129 -2.051424
29.667547 0.4771404 -2.2326918
30.984362 18.530369 -1.4772086
30.956339 18.699644 -1.4778485
30.927423 18.508081 -1.3906394
30.922541 18.932039 -1.4318277
30.831213 18.862484 -1.3916138
30.702618 18.597868 -1.3860849
30.712801 18.746834 -1.4022707
30.708004 18.714659 -1.2056984
30.654673 18.581842 -1.1986108
30.81078 18.729204 -1.0395082
30.862032 18.749004 -1.3076531
30.446901 -39.82156 0.50211495
30.494089 -39.798523 0.59294486
30.463778 -39.986263 0.6215055
30.465464 -39.671959 0.64712155
35.918915 9.9120808 -1.1935169
35.955975 9.6606188 -1.2126588
35.954361 9.7913685 -1.2046545
35.67387 9.7431479 -1.0273534
35.589539 9.8406477 -1.062604
29.215937 -9.4728842 -2.2122538
29.081528 -9.2248507 -2.4483936
30.28252 9.9451761 -1.3775947
30.287413 9.6003361 -1.3439064
30.342638 9.652379 -1.070879
48.169796 -11.915487 2.6403284
48.163647 -11.735682 2.6280429
48.02578 -11.524025 2.6107543
48.298363 -11.807806 2.5456088
48.020477 -11.905893 2.5504062
48.078506 -11.575548 2.5274572
48.134617 -11.850305 2.5196681
48.288185 -11.704101 2.5083096
48.108696 -11.975368 2.5167856
48.316959 -11.938276 2.9676766
48.251591 -11.794782 2.942205
48.299892 -11.775082 2.7381003
32.745983 5.3686194 -1.4943662
29.537912 0.54963529 -1.4733391
52.113903 -39.405552 1.5298657
52.108047 -39.115482 1.5185413
52.468582 -39.010254 1.6771539
52.278397 -39.439449 1.5617573
52.334198 -39.296795 1.5990715
52.230789 -39.351761 1.7736013
30.865265 19.288315 -0.32157293
30.985243 19.292349 0.030823955
38.648766 14.554062 -0.070569381
38.66383 14.884253 -0.052176107
38.683643 14.722242 -0.062388372
38.745007 14.92738 -0.15476409
38.73267 14.624132 -0.17077702
38.732826 14.784542 -0.16193907
38.645164 14.88409 -0.16172348
38.686993 14.523351 -0.18833934
38.669781 14.933304 0.16629307
38.714485 14.994546 0.016760731
49.192562 -43.820419 1.7387559
49.281258 -43.726334 1.8281481
49.269611 -43.513321 1.8451867
49.105854 -43.978867 1.8779849
49.180935 -43.753819 1.8595011
35.801094 10.131 0.18275902
35.57412 10.207082 0.16917472
35.637112 10.335853 -0.19276217
35.522003 10.426778 -0.18122028
35.910404 10.27345 -0.210049
35.997581 10.030607 -0.23059431
35.513699 10.022429 0.0045629963
35.744221 10.313849 -0.19226944
35.672153 10.077197 -0.098729648
