# .PCD v0.7 - Point Cloud Data file format
VERSION 0.7
FIELDS x y z
SIZE 4 4 4
TYPE F F F
COUNT 1 1 1
WIDTH 1345
HEIGHT 1
VIEWPOINT 0 0 0 1 0 0 0
POINTS 1345
DATA ascii
0.069669284 -0.14253098 0.046186201
-0.012593335 -0.14137381 0.023248903
0.07241521 -0.13358134 0.016422726
-0.010022758 -0.15074378 -0.0077242106
0.072463587 -0.14837074 -0.015869685
-0.0077553513 -0.14673054 -0.03589993
-0.0030146926 -0.363484 -0.079574049
-0.0016468533 -0.36508951 -0.097970292
0.051913824 -0.35557941 -0.10399782
-5.9723388e-05 -0.3626731 -0.12066782
0.055706427 -0.35447669 -0.16065025
0.0013126102 -0.36386344 -0.1409914
0.05944398 -0.33849773 -0.18549556
0.0048345821 -0.39336136 -0.19739896
0.037502252 -0.51943302 -0.19192523
0.005322698 -0.45365423 -0.19985691
0.032239448 -0.56096327 -0.18947577
0.0058671432 -0.56392652 -0.20123664
-0.021528432 -0.13391876 0.15625903
0.087543413 0.047259748 0.21170065
-0.01706842 -0.13342297 0.10638843
0.088341109 0.02497977 0.13920435
-0.013027802 -0.13938713 0.057754375
0.073359326 -0.13076293 0.049332671
-0.010186928 -0.14625788 0.022376575
0.075032175 -0.13143134 0.017036147
-0.0078789005 -0.14334029 -0.0063390434
0.074729308 -0.14864862 -0.015745178
-0.005493314 -0.14672697 -0.035735637
-0.0014992941 -0.36597803 -0.079644442
-0.00018148264 -0.36259088 -0.097800881
0.0014301147 -0.37266809 -0.12023441
0.056854054 -0.35711542 -0.16024613
0.0027746165 -0.36386347 -0.14088555
0.060628206 -0.34112188 -0.18495989
0.0061672376 -0.39335924 -0.19730218
0.038759984 -0.51721156 -0.19270146
0.0063055819 -0.46322164 -0.19687408
0.032998092 -0.56105661 -0.18943413
0.0064486004 -0.57067728 -0.19792034
-0.019483365 -0.12701309 0.15934798
0.090188295 0.044580102 0.21093997
-0.014937145 -0.12869507 0.10817481
0.09275347 0.038846135 0.14384735
-0.010961696 -0.1321454 0.059854962
0.075599797 -0.13104528 0.049454711
-0.0080896821 -0.14137053 0.023575433
0.076377466 -0.13901597 0.015700288
-0.0056117247 -0.15074241 -0.0074046478
0.077182621 -0.14646602 -0.015256934
-0.0033003909 -0.15169609 -0.036166549
-0.00010243768 -0.36348972 -0.079364002
0.0012370104 -0.36509532 -0.097762316
0.0028045564 -0.37017462 -0.12021703
0.0041503841 -0.36635926 -0.14057595
0.062772416 -0.33643821 -0.18578485
0.0073976661 -0.39578885 -0.19661376
0.039986853 -0.51498938 -0.19347985
0.0072150324 -0.47040078 -0.19462499
0.03518945 -0.55201632 -0.19319689
0.0071943696 -0.56842881 -0.19895799
-0.016987538 -0.12931889 0.15854785
0.093755193 0.048803687 0.21294096
-0.012597502 -0.12633902 0.1091591
0.097414024 0.05267024 0.14850226
-0.0085193645 -0.13698363 0.058729656
0.079706393 -0.11690146 0.053210355
-0.0057169935 -0.14627033 0.02269844
0.079895996 -0.1295805 0.017769642
-0.0033495612 -0.15075326 -0.0072424039
0.079765551 -0.14430761 -0.014762737
-0.001121902 -0.13929445 -0.034537613
0.0013960949 -0.36599383 -0.079437055
0.0027059242 -0.37260345 -0.097847633
0.0042682597 -0.36768624 -0.12019391
0.0055823112 -0.3688603 -0.14026302
0.065383576 -0.32934117 -0.18705593
0.0087660374 -0.39336827 -0.1971153
0.039785817 -0.52210009 -0.190956
0.008485754 -0.46083796 -0.1974453
0.035977092 -0.55211884 -0.19315448
0.0081942864 -0.55943108 -0.20325169
-0.014446836 -0.13393414 0.15676957
0.096812606 0.048393905 0.21310398
-0.010054002 -0.13344651 0.10689295
0.10188859 0.064102471 0.1524117
-0.0061444496 -0.13941538 0.058248736
0.082114406 -0.11722183 0.053339101
-0.0035159646 -0.13650924 0.024949886
0.082862727 -0.12502748 0.018868305
-0.0011148116 -0.14583927 -0.0062637106
0.082364768 -0.14215952 -0.014268816
0.0011846101 -0.14924449 -0.035551667
0.0028809283 -0.36600953 -0.079331785
0.004110978 -0.38261557 -0.098001629
0.0056835618 -0.37269887 -0.11993083
0.0070877187 -0.36389297 -0.14057747
0.066207327 -0.33441362 -0.18607143
0.0099434191 -0.40066195 -0.19523276
0.041057326 -0.51988983 -0.19173285
0.0094688507 -0.4656325 -0.19591984
0.037146926 -0.54994345 -0.19406217
0.0085760979 -0.57069099 -0.19776824
-0.011886518 -0.14085847 0.1540114
0.10014799 0.050281525 0.21418491
-0.0076761688 -0.13347083 0.10706165
0.10378655 0.054213703 0.14957502
-0.0038595616 -0.13461238 0.0597113
0.083903924 -0.12236196 0.052255325
-0.0011323201 -0.14631438 0.023024119
0.084270284 -0.13264406 0.017532416
0.0011848613 -0.1557309 -0.0077400506
0.084980264 -0.14002168 -0.013775185
0.0034422481 -0.14678919 -0.035097525
0.05988441 -0.33616236 -0.063673928
0.0043410617 -0.37101716 -0.079589084
0.0055913106 -0.37513867 -0.097707234
0.0070949821 -0.37521771 -0.11975011
0.0086656865 -0.3564398 -0.14109807
0.068123661 -0.33219588 -0.18644044
0.011371669 -0.39582315 -0.19633093
0.041569099 -0.52234149 -0.19086125
0.010619433 -0.46325403 -0.19656636
0.036771499 -0.55689144 -0.19117215
0.0094619393 -0.56619942 -0.1998882
-0.0095559498 -0.1385873 0.15515608
0.10206014 0.040622532 0.21066552
-0.0052983519 -0.13350338 0.10722918
0.10683148 0.053785205 0.14973453
-0.0015089116 -0.13464618 0.059876688
0.001165454 -0.14879292 0.022662021
0.086933665 -0.13054097 0.018142514
0.0034443545 -0.14590055 -0.0059423372
0.086939447 -0.14279234 -0.014027655
0.0057044094 -0.14682436 -0.034938745
0.0594115 -0.35116002 -0.065135039
0.0057664323 -0.37602958 -0.079849578
0.0069770738 -0.38016212 -0.097737253
0.008528227 -0.37524286 -0.11964992
0.010058952 -0.3614471 -0.14057943
0.067754865 -0.34456053 -0.1841099
0.012560446 -0.40069836 -0.19504847
0.042855047 -0.52013969 -0.19163826
0.011488808 -0.47044811 -0.19432229
0.03913258 -0.54788595 -0.1949276
0.0098393615 -0.57521379 -0.19549716
-0.0070629548 -0.14552742 0.15239081
0.10538432 0.042490363 0.21174282
-0.0029205787 -0.13354409 0.10739554
0.10956235 0.050982177 0.14914164
0.00083471788 -0.13227403 0.060690738
0.0034587029 -0.14150125 0.024392985
0.087598644 -0.14302152 0.015824728
0.0057114847 -0.14840901 -0.0061939582
0.087500773 -0.15535951 -0.015775591
0.0079665137 -0.14686733 -0.034781076
0.059541054 -0.36122501 -0.066086382
0.007275864 -0.37107378 -0.079384655
0.0085937101 -0.36769819 -0.097307816
0.0099614244 -0.37527305 -0.11955044
0.011640638 -0.35649571 -0.14089063
0.070828296 -0.33506733 -0.18582988
0.014096957 -0.39344186 -0.19673979
0.042948224 -0.52492118 -0.18994507
0.012639345 -0.46807712 -0.19496986
0.038719483 -0.55483377 -0.19204029
0.010836398 -0.56847674 -0.19870111
-0.0046204822 -0.15247506 0.1496208
0.10720121 0.032823861 0.20821545
-0.00058036204 -0.12650293 0.11000586
0.11291708 0.052896678 0.15004867
0.0031888741 -0.139566 0.058903046
0.0057682521 -0.14155132 0.024553068
0.090242609 -0.1409319 0.016431488
0.0079189567 -0.15585673 -0.0072703883
0.091156371 -0.14590317 -0.014165081
0.010168026 -0.15188247 -0.035217911
0.06358166 -0.34422365 -0.064199716
0.0087431772 -0.37110975 -0.079283535
0.062669598 -0.35768896 -0.083754316
0.010017291 -0.37023291 -0.097273186
0.011450704 -0.37280995 -0.11952908
0.012999859 -0.36151272 -0.14037585
0.071567662 -0.34014913 -0.18485281
0.015093248 -0.40317997 -0.19427317
0.043420661 -0.52737629 -0.1890768
0.014165727 -0.45614222 -0.19850242
0.040322129 -0.55039644 -0.19389674
-0.0022677425 -0.15482908 0.14880344
0.11176571 0.043883801 0.21297398
0.0018189251 -0.12419748 0.11098728
0.11628734 0.054798067 0.15095496
0.0055426257 -0.13479644 0.060365848
0.0081188707 -0.13672125 0.025762118
0.091843754 -0.14613158 0.015571512
0.010252838 -0.14851731 -0.0058805645
0.092344955 -0.1535815 -0.015171811
0.012568353 -0.14201289 -0.033874519
0.062184766 -0.36412805 -0.066190198
0.010351636 -0.36367229 -0.078633085
0.062667809 -0.36778215 -0.084267825
0.011699598 -0.36027989 -0.096904054
0.013021766 -0.36785433 -0.11958405
0.014542766 -0.35906273 -0.14048064
0.073905282 -0.3355298 -0.18567291
0.01667002 -0.39593321 -0.19596297
0.043459706 -0.53215551 -0.1873872
0.01518346 -0.45856336 -0.197705
0.041114975 -0.55051649 -0.19385645
0.011959377 -0.57526457 -0.19535089
0.00011930335 -0.1433928 0.1538673
0.11367115 0.034181833 0.20944795
0.0043260278 -0.13608223 0.10707939
0.12016445 0.059022367 0.15262026
0.0079910373 -0.13727981 0.059882917
0.16037853 0.31493419 0.16411176
0.010472751 -0.14412296 0.024351962
0.093522884 -0.15135157 0.014714323
0.012632286 -0.15598649 -0.0069475919
0.094705313 -0.15394551 -0.015052721
0.014721019 -0.15449214 -0.035200909
0.064901613 -0.35699663 -0.065332338
0.01180708 -0.36870676 -0.078894533
0.06390366 -0.37049592 -0.0843338
0.013013105 -0.37032223 -0.097068995
0.06230348 -0.38728434 -0.10352451
0.014405929 -0.37289789 -0.11932763
0.016013948 -0.36160114 -0.1401702
0.077263683 -0.32609758 -0.18738094
0.017758736 -0.40325439 -0.19409078
0.04483059 -0.52997947 -0.1881617
0.016134128 -0.46338147 -0.1961852
0.041559074 -0.55292547 -0.1928651
0.0024881661 -0.14576393 0.15304866
0.11700644 0.036004663 0.21051964
0.0067083491 -0.13379329 0.10805724
0.12253313 0.053819239 0.15126786
0.010304485 -0.13976777 0.059389539
0.1664926 0.32869262 0.16795793
0.012734812 -0.14664096 0.023981653
0.095422596 -0.15413314 0.014338054
0.014954777 -0.14619571 -0.0051509589
0.095812775 -0.16162729 -0.016065814
0.016899718 -0.15704757 -0.035348095
0.065253593 -0.36460215 -0.066035479
0.013477391 -0.36128145 -0.078241333
0.064109601 -0.37810618 -0.084709674
0.014693131 -0.36287954 -0.096764997
0.064035892 -0.38502562 -0.10343039
0.015765039 -0.3754459 -0.11915485
0.068221942 -0.37876257 -0.15693153
0.017304145 -0.36663207 -0.1396624
0.077055953 -0.33602589 -0.1855154
0.01916755 -0.40087107 -0.19459468
0.046086647 -0.52778876 -0.18894246
0.01734004 -0.46102667 -0.19683111
0.041000754 -0.55986112 -0.18998659
0.013407823 -0.5753119 -0.19525275
0.0048763705 -0.1343441 0.15811029
0.11967988 0.033216655 0.20974565
0.0090854568 -0.13387567 0.10821762
0.12593302 0.055682957 0.15217096
0.012527153 -0.14708924 0.057588138
0.17086148 0.33043855 0.16876361
0.014932247 -0.15160984 0.023082159
0.096545562 -0.16176361 0.012979575
0.017177269 -0.14874297 -0.0054113269
0.099974386 -0.14978093 -0.014078505
0.019191807 -0.15464771 -0.034899354
0.064369202 -0.37956879 -0.067521974
0.014684753 -0.37130725 -0.078881457
0.06797567 -0.36356118 -0.083744332
0.015772197 -0.37542528 -0.097010896
0.067912653 -0.37045676 -0.10319292
0.017106872 -0.37799835 -0.11898395
0.069624364 -0.37898913 -0.15686223
0.018757164 -0.36668754 -0.13956508
0.080755137 -0.32416967 -0.18767715
0.020242032 -0.40577143 -0.1933241
0.047841683 -0.52329075 -0.19054219
0.018073704 -0.46824101 -0.19459973
0.043530669 -0.55089974 -0.19373608
0.014247552 -0.57308888 -0.19628724
0.007156142 -0.13442808 0.15826342
0.12357114 0.039636016 0.21265337
0.011403968 -0.12923712 0.11000485
0.12846796 0.052847147 0.1515592
0.014852922 -0.13993615 0.059694894
0.17672828 0.34421068 0.17259377
0.017258493 -0.14436513 0.024808802
0.10021683 -0.15243059 0.015045412
0.01913991 -0.15622205 -0.0065099373
0.099743709 -0.16477257 -0.016228847
0.021130061 -0.1572088 -0.035064749
0.066550255 -0.37488616 -0.06693349
0.016167536 -0.36637896 -0.078422375
0.066917114 -0.37856022 -0.084571019
0.017339557 -0.36798748 -0.096715763
0.06426084 -0.40025598 -0.10346504
0.018881341 -0.36556733 -0.11927132
0.071827531 -0.37432656 -0.15743223
0.020170826 -0.36425224 -0.13968134
0.081811436 -0.3268387 -0.18715714
0.021404643 -0.40581793 -0.19324654
0.048685186 -0.52343035 -0.19050097
0.019429211 -0.46110722 -0.1966913
0.042935483 -0.55783415 -0.19086003
0.015448876 -0.5641166 -0.20056993
0.0096230172 -0.12762707 0.16136798
0.12517738 0.029939473 0.20910648
0.013720154 -0.13405997 0.10852697
0.13150902 0.052333117 0.15170625
0.017078102 -0.14485919 0.058541812
0.18098639 0.34348851 0.17279932
0.019366303 -0.15179127 0.023377366
0.021643085 -0.15139496 -0.0055241883
0.10357304 -0.15539187 -0.014616519
0.02354997 -0.15482938 -0.034609661
0.067189358 -0.38003364 -0.067383945
0.017725639 -0.3664493 -0.078319572
0.07095626 -0.36405459 -0.083598748
0.019177735 -0.36056602 -0.096403338
0.069112152 -0.38079104 -0.10316575
0.020098617 -0.37312651 -0.11894799
0.071538053 -0.38433608 -0.15609156
0.021935036 -0.35934272 -0.13998526
0.083456255 -0.32711828 -0.18707785
0.022760872 -0.40587679 -0.19315672
0.050073065 -0.52127087 -0.19127664
0.020034105 -0.47072044 -0.19374233
0.04648257 -0.54435921 -0.19649753
0.01593373 -0.56864977 -0.19835669
0.012012319 -0.13923234 0.1566259
0.12977153 0.038574398 0.21295121
0.016358577 -0.12708753 0.11114909
0.13508135 0.054134905 0.15261301
0.019758716 -0.13532239 0.061320297
0.18445234 0.33796674 0.17178261
0.022045884 -0.14213181 0.025649004
0.024099635 -0.14904183 -0.0049526691
0.10675532 -0.15092379 -0.013750203
0.0262626 -0.1450187 -0.033252046
0.069970712 -0.37294105 -0.066526942
0.01958232 -0.35905233 -0.077656902
0.071228504 -0.37169611 -0.083974265
0.020747604 -0.36064255 -0.096300572
0.070167452 -0.38350764 -0.10312319
0.021844562 -0.36820796 -0.11899559
0.074350148 -0.37727195 -0.15697224
0.023115233 -0.36688402 -0.13927752
0.086472481 -0.32015306 -0.18833834
0.024539942 -0.39866447 -0.19483677
0.04915598 -0.53069532 -0.18795043
0.02115518 -0.47077376 -0.19366875
0.046406761 -0.54904133 -0.19456536
0.016852949 -0.56643724 -0.19938689
0.014553182 -0.13015133 0.16071302
0.13242151 0.035747588 0.21216998
0.018591397 -0.13428736 0.1088473
0.13929597 0.060652018 0.15502071
0.022036368 -0.13784957 0.060818739
0.18848579 0.33725303 0.17197308
0.024190193 -0.14713031 0.024741419
0.026073009 -0.15407681 -0.0056438968
0.10943578 -0.14888537 -0.01326602
0.028130503 -0.15505201 -0.0343097
0.071000434 -0.37564418 -0.066719167
0.020983571 -0.36162177 -0.077746302
0.071740866 -0.37685171 -0.084209383
0.022010196 -0.36571333 -0.096346229
0.07240054 -0.37882233 -0.10300025
0.02330225 -0.36828423 -0.1189009
0.077070132 -0.37019709 -0.15785804
0.024964625 -0.35949454 -0.13978752
0.086121336 -0.33008289 -0.18648341
0.025408231 -0.40600586 -0.19298342
0.051390231 -0.52389723 -0.19037157
0.022529796 -0.46604827 -0.19503337
0.047164068 -0.54917514 -0.19452956
0.01726364 -0.5709728 -0.19717935
0.016872432 -0.13487005 0.15890399
0.13657422 0.042079151 0.21508414
0.021226421 -0.12496805 0.11228278
0.14077345 0.050700366 0.15214464
0.024296409 -0.14038402 0.060314901
0.19086921 0.32696933 0.16971847
0.026661305 -0.14236885 0.025949441
0.028723584 -0.14434516 -0.0038319156
0.11170078 -0.14929134 -0.013159804
0.030473398 -0.15269297 -0.03386309
0.072457813 -0.37590289 -0.066650465
0.022601133 -0.35921526 -0.077461518
0.071397223 -0.38692883 -0.084745362
0.023737166 -0.36080414 -0.09610711
0.07246682 -0.38645145 -0.10302289
0.025160838 -0.36087936 -0.11902349
0.07662484 -0.3801946 -0.15652694
0.026301298 -0.3620643 -0.13949129
0.088623531 -0.32553601 -0.1873019
0.02701363 -0.4012264 -0.19407716
0.051797248 -0.52636927 -0.18951046
0.02361295 -0.46610722 -0.19496334
0.047003359 -0.55384755 -0.19260216
0.018322855 -0.56651521 -0.19929159
0.019094713 -0.13729107 0.15806764
0.14062224 0.048419416 0.21799198
0.023223709 -0.13453579 0.10914733
0.1444678 0.054868579 0.15378872
0.026510756 -0.14050823 0.060457535
0.19614269 0.3358584 0.17232898
0.028557029 -0.14981598 0.024499647
0.030570859 -0.15185636 -0.0049434602
0.11604845 -0.13752484 -0.011170402
0.032374639 -0.15528733 -0.034035906
0.072946101 -0.38104442 -0.067111
0.024084041 -0.35680556 -0.077186048
0.074101932 -0.37981084 -0.084228799
0.025214719 -0.35838819 -0.095948592
0.073799044 -0.38669327 -0.10296085
0.026495472 -0.3609581 -0.11893806
0.079860657 -0.37070259 -0.15772793
0.028068637 -0.35467938 -0.14000788
0.090115897 -0.32581097 -0.187233
0.028025568 -0.40371802 -0.19341341
0.053117156 -0.52421069 -0.19029117
0.024419116 -0.46855289 -0.19418469
0.047745839 -0.55398369 -0.1925678
0.018808283 -0.568802 -0.19817021
0.021419723 -0.13972586 0.15723678
0.14249077 0.04098171 0.21535632
0.025680162 -0.13231564 0.11012075
0.14751682 0.054298759 0.15392837
0.028841265 -0.14064687 0.060606547
0.20079884 0.33745211 0.17313379
0.031159945 -0.14263076 0.026237883
0.033413976 -0.13968205 -0.0027111396
0.11476957 -0.15739626 -0.014091112
0.034971356 -0.1504727 -0.033280194
0.075297199 -0.37642193 -0.066518761
0.025945105 -0.35192654 -0.076706581
0.075072639 -0.38252777 -0.084314428
0.027217567 -0.35100198 -0.09562926
0.073788591 -0.39431778 -0.10298841
0.028353095 -0.35606629 -0.11898138
0.080319934 -0.3758333 -0.1570318
0.030109424 -0.34731561 -0.14050768
0.092174925 -0.32369471 -0.18760613
0.029735021 -0.39895317 -0.19450173
0.053014774 -0.52899575 -0.18861264
0.025901379 -0.46384421 -0.19554389
0.049019948 -0.55186808 -0.19347644
0.019021712 -0.57559288 -0.19488627
0.024212593 -0.13069189 0.16133547
0.14648429 0.044947624 0.21735147
0.028001525 -0.13719004 0.10863591
0.15113962 0.056034207 0.15482935
0.030970668 -0.14803028 0.058789574
0.20547009 0.33902687 0.17393699
0.033115707 -0.15254474 0.024265639
0.035567578 -0.14722836 -0.0038054809
0.11757351 -0.15541327 -0.013605878
0.037469074 -0.14814651 -0.032827049
0.077295974 -0.37426794 -0.066185415
0.027556337 -0.35203278 -0.076605044
0.075220838 -0.39017352 -0.084699534
0.0288224 -0.35110787 -0.095528141
0.078181155 -0.37988338 -0.10273272
0.029927569 -0.35617012 -0.11888216
0.080884948 -0.38098931 -0.1563316
0.031205678 -0.35487968 -0.13980925
0.091917798 -0.33366394 -0.18574998
0.031115398 -0.39904186 -0.19441441
0.05597841 -0.51994479 -0.19184381
0.026861304 -0.46630675 -0.19475654
0.050387725 -0.54977345 -0.19438133
0.020335753 -0.56889892 -0.19807342
0.026544707 -0.1331442 0.16050261
0.14953026 0.044354975 0.21748766
0.030466054 -0.13498712 0.10960747
0.15332939 0.050754428 0.15345308
0.033731818 -0.13854718 0.061566241
0.20772415 0.32871026 0.17166838
0.035887569 -0.14293885 0.026536338
0.038133316 -0.13999116 -0.0024134293
0.039727461 -0.14829952 -0.03268531
0.07685712 -0.38430968 -0.067174606
0.030000374 -0.33721063 -0.075367615
0.077992924 -0.38308316 -0.084182031
0.030987827 -0.34123892 -0.095136002
0.078558944 -0.38504738 -0.10273475
0.03159472 -0.35378096 -0.11885843
0.081206001 -0.38610357 -0.15564312
0.033223271 -0.34752521 -0.14031206
0.092878617 -0.33635774 -0.18524042
0.032808598 -0.39428541 -0.19550508
0.055814058 -0.5247243 -0.19016899
0.027943676 -0.46638072 -0.19468871
0.052158784 -0.54540318 -0.19623512
0.021062899 -0.56894898 -0.19802791
0.029580254 -0.1172387 0.16755486
0.15046422 0.032334983 0.21299061
0.033484712 -0.12100244 0.11469392
0.15636401 0.050154209 0.15358737
0.036069587 -0.13871098 0.061712198
0.21217997 0.33029693 0.1724577
0.038594484 -0.13578445 0.028277703
0.040004931 -0.14753538 -0.0035279021
0.042137809 -0.1459837 -0.032239974
0.080213688 -0.37483335 -0.066054627
0.031906866 -0.33235106 -0.074887633
0.077946998 -0.39070198 -0.084577359
0.032214187 -0.34633926 -0.095188498
0.078973234 -0.39022309 -0.10273582
0.032925624 -0.35638374 -0.1186955
0.082073368 -0.38880226 -0.15526785
0.034558523 -0.35012081 -0.1400196
0.096468084 -0.3270382 -0.18694773
0.034336299 -0.39195782 -0.19600829
0.055663884 -0.52950931 -0.18849392
0.029829159 -0.4569087 -0.19747743
0.051421549 -0.55233467 -0.19336897
0.022200841 -0.56450808 -0.20013678
0.031920306 -0.11740583 0.1677005
0.15331456 0.031760395 0.21311525
0.03520973 -0.13295811 0.11071929
0.15834835 0.044894218 0.15219912
0.038421173 -0.13646609 0.06250874
0.21578655 0.32956904 0.17261523
0.040524781 -0.14082474 0.02734869
0.042620588 -0.14031631 -0.0021348074
0.043856829 -0.15108788 -0.03272441
0.081110694 -0.37754646 -0.066257887
0.034021888 -0.32251275 -0.074033648
0.079273872 -0.39096606 -0.08451888
0.034131609 -0.33896726 -0.09487737
0.080293208 -0.39048624 -0.1026777
0.034090091 -0.35897893 -0.11854352
0.082855403 -0.39148858 -0.154897
0.036298893 -0.34525436 -0.14033139
0.096912876 -0.3321479 -0.18599597
0.035949968 -0.38720387 -0.19710508
0.057535514 -0.52506757 -0.19009322
0.030415393 -0.46175769 -0.19598845
0.0516463 -0.55474073 -0.19239312
0.022444043 -0.56905103 -0.19794242
0.035128195 -0.10152888 0.17476115
0.1571894 0.035705507 0.21509883
0.037839133 -0.1284253 0.11251397
0.16227566 0.048953652 0.15384457
0.040766548 -0.13664639 0.062652893
0.21857817 0.32157367 0.17095679
0.043290053 -0.13369006 0.029091455
0.044280183 -0.15033168 -0.0036750957
0.047064323 -0.13889468 -0.031050645
0.082561679 -0.37784016 -0.066194631
0.035563696 -0.3251355 -0.074120447
0.079150833 -0.39857891 -0.084918939
0.035225961 -0.34657449 -0.095003903
0.080655791 -0.39566112 -0.10268238
0.03565421 -0.35910365 -0.11844802
0.084214874 -0.39176598 -0.15483806
0.037901461 -0.34538141 -0.14023344
0.097932115 -0.33486912 -0.18548605
0.036945105 -0.3921569 -0.19584772
0.058417432 -0.52524811 -0.19005504
0.032216273 -0.45468894 -0.198057
0.053484082 -0.55039227 -0.19424519
0.023646133 -0.56461966 -0.20004803
0.037993595 -0.09484458 0.17787802
0.15930925 0.030520141 0.21337274
0.040104069 -0.13097245 0.11183586
0.16716497 0.057668567 0.15700558
0.042814523 -0.14164805 0.061475761
0.22207493 0.31836683 0.17051268
0.045150429 -0.14118999 0.027631603
0.046714175 -0.14805692 -0.0031163543
0.049355417 -0.13908124 -0.030911304
0.082996704 -0.38300598 -0.066662461
0.03867875 -0.30538535 -0.07248275
0.080520183 -0.39886108 -0.084859952
0.037350155 -0.33922899 -0.094681591
0.083590753 -0.38860959 -0.10252463
0.036538187 -0.36670041 -0.11815417
0.084504388 -0.39689219 -0.15415356
0.040051892 -0.33805719 -0.14073095
0.10054671 -0.33038908 -0.18630594
0.037618734 -0.39952761 -0.19401267
0.05875989 -0.52773213 -0.18920031
0.033112973 -0.45716637 -0.19727632
0.053202853 -0.55506241 -0.19232619
0.02393353 -0.56917125 -0.19785169
0.041160893 -0.085890412 0.18199241
0.16381887 0.036681533 0.21628854
0.043461695 -0.11704701 0.11693842
0.16990396 0.054652393 0.15638295
0.045730241 -0.13463521 0.063605286
0.22721511 0.32222873 0.17191622
0.048083413 -0.13408548 0.029382236
0.048567031 -0.15563238 -0.004236646
0.05082462 -0.15165585 -0.032300755
0.083983809 -0.3857528 -0.066863991
0.041240398 -0.29559949 -0.071603894
0.083004348 -0.39428306 -0.084490083
0.038390595 -0.34684366 -0.094813094
0.08346469 -0.39624614 -0.10256226
0.038285282 -0.36434385 -0.1181293
0.087541968 -0.38992926 -0.15503231
0.040811975 -0.34812909 -0.13984856
0.10054104 -0.33793426 -0.18491
0.039916061 -0.38996518 -0.19626582
0.059129927 -0.53022516 -0.18834484
0.034048863 -0.45965138 -0.19649392
0.053474583 -0.55748624 -0.19134948
0.02493046 -0.56699222 -0.19888106
0.043739151 -0.086110234 0.1821478
0.16544503 0.029205739 0.21362993
0.17295337 0.053994358 0.15651008
0.04775025 -0.13965142 0.062424071
0.23020016 0.31662387 0.1708529
0.049534995 -0.14646876 0.026846327
0.051373586 -0.14845961 -0.0028363019
0.05346277 -0.14690834 -0.031551607
0.084881254 -0.38848594 -0.067070067
0.084388688 -0.39457864 -0.084431916
0.040144775 -0.3444933 -0.094643876
0.085372128 -0.39409772 -0.10247117
0.040633772 -0.35451913 -0.11830903
0.087252818 -0.39747787 -0.15403792
0.042779613 -0.34330136 -0.14014941
0.1004082 -0.34545773 -0.18352017
0.040785242 -0.39492282 -0.19501826
0.061657768 -0.52352059 -0.19075805
0.035153281 -0.45974973 -0.19642797
0.056451678 -0.54865617 -0.19508527
0.024939142 -0.57379055 -0.195613
0.046467889 -0.081743836 0.1842722
0.1687568 0.030854762 0.21467522
0.050907165 -0.077444673 0.13126683
0.17731953 0.060352385 0.15890613
0.050316386 -0.13504386 0.063879184
0.2347727 0.32058078 0.1722289
0.051528327 -0.14910251 0.026440091
0.052947182 -0.15602642 -0.0039755926
0.055703316 -0.14462304 -0.031122901
0.086223491 -0.38877693 -0.067014299
0.086243115 -0.39242783 -0.084222317
0.041540928 -0.3446241 -0.094561398
0.08613278 -0.39682108 -0.10245091
0.041988377 -0.35464606 -0.11822902
0.091320448 -0.38567284 -0.15554605
0.043226779 -0.35335582 -0.1392872
0.10408373 -0.33618933 -0.18522856
0.041980661 -0.39503276 -0.19494735
0.060254656 -0.53288686 -0.18745875
0.036394283 -0.4574576 -0.19708019
0.056651145 -0.55107021 -0.19411239
0.026075518 -0.56936288 -0.1977239
0.048171125 -0.095728934 0.17848903
0.17127302 0.027915239 0.21386823
0.17939208 0.055009842 0.15751246
0.052118625 -0.1424768 0.06203147
0.23843123 0.31728083 0.17178324
0.054394446 -0.14201665 0.028183259
0.056413982 -0.14150673 -0.0013055429
0.058088116 -0.14485037 -0.030982576
0.086552344 -0.39394009 -0.067489453
0.086536601 -0.3976028 -0.084476031
0.043169294 -0.34478214 -0.094465993
0.089720137 -0.38737354 -0.10225771
0.04286043 -0.36226335 -0.11793895
0.09156511 -0.39080882 -0.15486619
0.044800512 -0.35350814 -0.13919495
0.10561883 -0.33653265 -0.18516627
0.043374915 -0.39516568 -0.19486532
0.062817693 -0.52619648 -0.18987143
0.037561536 -0.45756933 -0.19701159
0.058007557 -0.5490008 -0.19502166
0.026581889 -0.57167947 -0.19660527
0.05071371 -0.095972061 0.17863852
0.17474641 0.029507279 0.21491709
0.06010269 -0.0238235 0.15059474
0.1814287 0.049664438 0.15611583
0.055208914 -0.13309222 0.064817958
0.23978329 0.30455011 0.16886485
0.05629842 -0.14710981 0.027244799
0.058498342 -0.14418769 -0.0015949532
0.060137227 -0.14754587 -0.031159088
0.089046188 -0.38940394 -0.066899166
0.08790949 -0.39791051 -0.084420428
0.045665685 -0.33498803 -0.09406054
0.092246674 -0.38281703 -0.10213185
0.044338997 -0.36241233 -0.11785311
0.093502298 -0.38870341 -0.15512285
0.045046419 -0.36605775 -0.13813724
0.10541954 -0.34405723 -0.18378142
0.04574839 -0.38562831 -0.19711651
0.061390068 -0.53556269 -0.18657391
0.037882596 -0.46482718 -0.19481631
0.057657842 -0.55366957 -0.19310743
0.028088517 -0.56502408 -0.19978395
0.052885845 -0.10310507 0.17582253
0.17937733 0.03558439 0.21782967
0.18616039 0.055906832 0.15852186
0.057484314 -0.13574511 0.064298354
0.24389555 0.30360097 0.16902751
0.059127767 -0.14248985 0.028458618
0.060348861 -0.15180612 -0.0027215183
0.063433491 -0.13790905 -0.029783949
0.088855684 -0.397008 -0.06764137
0.089418471 -0.39825445 -0.08436013
0.047083605 -0.33764791 -0.094044134
0.09208487 -0.39047241 -0.10217475
0.048172146 -0.34019786 -0.11834707
0.09267047 -0.39869213 -0.15381847
0.046315402 -0.36869588 -0.13785562
0.046905592 -0.38819072 -0.19645229
0.062322222 -0.53577697 -0.18653691
0.039567687 -0.46018142 -0.19616979
0.060261913 -0.54714155 -0.19589585
0.055178702 -0.10795408 0.17399308
0.18254168 0.03484273 0.21795323
0.071147904 0.039057076 0.17329273
0.18989256 0.057479203 0.15940753
0.059740782 -0.13840526 0.063776366
0.24854407 0.30499905 0.16980392
0.060888432 -0.15003961 0.026984431
0.062953152 -0.14960486 -0.0021609068
0.065124378 -0.14557207 -0.030575849
0.089172371 -0.40218389 -0.068119213
0.091432981 -0.3961603 -0.084146991
0.048737448 -0.33782622 -0.093949765
0.094706312 -0.38594881 -0.1020467
0.049279395 -0.34534442 -0.11812534
0.095851161 -0.39179322 -0.15469597
0.047029652 -0.37629387 -0.13718966
0.048045401 -0.39075664 -0.19578987
0.064396344 -0.53140891 -0.18813202
0.0404456 -0.46268576 -0.19539431
0.061105013 -0.54733944 -0.19586295
0.028251845 -0.57639265 -0.19433181
0.057494149 -0.11050779 0.17314461
0.18606651 0.036388755 0.21899924
0.075160734 0.050485492 0.17760774
0.19615245 0.070677519 0.16408923
0.062952608 -0.12905818 0.066566296
0.25246251 0.30406493 0.16995469
0.063628428 -0.14542729 0.02819071
0.065347105 -0.14738876 -0.0016134232
0.067889147 -0.14088464 -0.029826067
0.091684021 -0.39766794 -0.067530513
0.090992086 -0.40374649 -0.084566265
0.050838385 -0.33303198 -0.093699932
0.094271697 -0.39355129 -0.10210183
0.050003275 -0.35296893 -0.11784704
0.096541017 -0.3945061 -0.15433559
0.049003743 -0.37149805 -0.13749458
0.049101122 -0.39331853 -0.19513291
0.064614639 -0.53388941 -0.18728575
0.042403411 -0.45566618 -0.19745851
0.060675457 -0.55199802 -0.19395305
0.059983112 -0.11078161 0.17328584
0.18908353 0.035659492 0.21911392
0.077786401 0.045450449 0.1761221
0.20034389 0.074564934 0.16572931
0.063964806 -0.14372003 0.06271223
0.25582123 0.30075949 0.16948655
0.0654497 -0.15054488 0.027242772
0.066879906 -0.15499878 -0.0027617961
0.069659971 -0.14607769 -0.030319415
0.093064971 -0.39799762 -0.06747745
0.095302597 -0.39195007 -0.08372917
0.051885933 -0.33818248 -0.093772508
0.096247852 -0.39145413 -0.10201306
0.096672617 -0.39964044 -0.15366367
0.05072597 -0.369187 -0.13760617
0.051318195 -0.38622802 -0.19679859
0.066681743 -0.52952635 -0.18888208
0.042929769 -0.46055165 -0.19597903
0.061462633 -0.55218828 -0.19392315
0.03024241 -0.57207233 -0.19639614
0.062072217 -0.11563581 0.17144087
0.18944743 0.023624957 0.21457353
0.081470303 0.052149415 0.178781
0.20456624 0.078433216 0.16736892
0.066755824 -0.13919163 0.064172365
0.26028985 0.30215639 0.17024979
0.067235596 -0.15566671 0.026291706
0.069129229 -0.15526062 -0.0026362017
0.072457708 -0.14140981 -0.029570036
0.096224375 -0.39109096 -0.066619545
0.096095078 -0.39471 -0.083833806
0.05514174 -0.32347137 -0.093196884
0.097633287 -0.39179096 -0.10196069
0.097387537 -0.40236846 -0.15330362
0.052464541 -0.36688283 -0.13771756
0.052977968 -0.38397333 -0.19730261
0.065090425 -0.53886843 -0.18559298
0.044031277 -0.46068075 -0.19591767
0.061638795 -0.55461597 -0.19295388
0.030959379 -0.57215691 -0.19635627
0.06441915 -0.11591035 0.17157173
0.19280775 0.025179267 0.21560881
0.084143251 0.049461544 0.17811242
0.21200924 0.096211374 0.17357144
0.070193216 -0.12746865 0.067623563
0.26380792 0.30127984 0.17037976
0.070403643 -0.14621264 0.028569482
0.071529962 -0.15306753 -0.0020914897
0.073965684 -0.14658713 -0.030080177
0.096355788 -0.39624256 -0.067107335
0.098625474 -0.39019424 -0.08346945
0.098334059 -0.39453843 -0.10194819
0.099268779 -0.40027905 -0.15356658
0.053169876 -0.37199083 -0.13726307
0.054516025 -0.3817085 -0.19781405
0.067128509 -0.53450441 -0.18719128
0.045643393 -0.45604497 -0.19727781
0.062995769 -0.55256701 -0.19386604
0.032828312 -0.56328249 -0.20060456
0.065378122 -0.13219559 0.16475466
0.19578442 0.024427593 0.21571735
0.087185912 0.049093723 0.17828035
0.21634257 0.10002917 0.17521188
0.074336655 -0.11098486 0.072416998
0.26790893 0.30024332 0.17052916
0.072435006 -0.14892113 0.028155349
0.074059546 -0.15089756 -0.0015407503
0.076908723 -0.14195234 -0.029324979
0.096522495 -0.4014076 -0.067594491
0.053579941 -0.3545672 -0.075081557
0.09755785 -0.40021428 -0.084049731
0.099086173 -0.3973034 -0.10193448
0.099332884 -0.4054108 -0.15289921
0.058087189 -0.34497261 -0.13927895
0.10398041 -0.39180619 -0.17503677
0.054366104 -0.39394182 -0.19484043
0.069237575 -0.53016138 -0.18878743
0.046815597 -0.45619014 -0.19721362
0.06315653 -0.55499637 -0.19289812
0.032356665 -0.57232904 -0.19627959
0.067891426 -0.13019615 0.16587386
0.1991639 0.025956869 0.21675047
0.090318628 0.05107969 0.1792694
0.22284171 0.11311185 0.17989442
0.27279496 0.30399197 0.17189822
0.075421505 -0.1419183 0.029895388
0.075084321 -0.16095811 -0.0031334311
0.078203864 -0.14961731 -0.030145809
0.099057466 -0.39692155 -0.067008361
0.052345291 -0.37702146 -0.076793119
0.098229088 -0.40295827 -0.084160879
0.10290578 -0.3879571 -0.10173886
0.10186069 -0.40093514 -0.1534723
0.059220433 -0.34763131 -0.13901009
0.1065449 -0.38738188 -0.17586821
0.056282729 -0.38928199 -0.19592868
0.069423042 -0.53264821 -0.18794444
0.048854478 -0.44919789 -0.19927585
0.062632322 -0.55964386 -0.19099352
0.033998042 -0.56570667 -0.19945322
0.070540994 -0.12822181 0.16699934
0.20045713 0.018430829 0.21406063
0.093115605 0.048346102 0.17860326
0.22843386 0.1214993 0.18305972
0.27431965 0.29358429 0.16956383
0.076890655 -0.14949161 0.028396763
0.077312879 -0.16124815 -0.0030133575
0.080158934 -0.15237355 -0.030337766
0.099188983 -0.4020873 -0.06749817
0.053486209 -0.37968644 -0.076914966
0.098317593 -0.40813297 -0.084429398
0.10238639 -0.39556694 -0.10180117
0.10189094 -0.40606755 -0.15280746
0.10660865 -0.39248359 -0.1749429
0.056962222 -0.39427602 -0.19470003
0.070923492 -0.53059542 -0.18872714
0.048991207 -0.45647106 -0.19709608
0.064671732 -0.55538696 -0.19284402
0.033752836 -0.5725106 -0.19620433
0.072965816 -0.12853897 0.16712978
0.2062619 0.028895736 0.21882427
0.096935473 0.054976404 0.18126228
0.23586231 0.13677669 0.18851361
0.27880469 0.29490668 0.17031765
0.079463206 -0.14737242 0.029060356
0.08043687 -0.1542114 -0.0016093999
0.083635554 -0.14283019 -0.028962873
0.098016575 -0.41205487 -0.068529911
0.055555794 -0.37493831 -0.076439038
0.10157834 -0.40124795 -0.083905742
0.10634705 -0.38626724 -0.10160197
0.1012309 -0.41358817 -0.15183595
0.10466623 -0.40469688 -0.17270476
0.059660077 -0.38482139 -0.1969395
0.071135826 -0.53309518 -0.18788403
0.05079006 -0.45187312 -0.19844809
0.064801961 -0.55781657 -0.19187836
0.035137787 -0.56813765 -0.19830504
0.075887159 -0.12430489 0.16924927
0.20867427 0.025850534 0.21799472
0.09838599 0.040511668 0.17643109
0.24220593 0.14740318 0.19244364
0.28145921 0.28918236 0.16921338
0.081159048 -0.15253025 0.028097622
0.082074523 -0.15940768 -0.002347894
0.085280694 -0.148063 -0.029470988
0.10127619 -0.40520388 -0.067672662
0.055390287 -0.38749537 -0.077363968
0.10423841 -0.39678994 -0.083540224
0.10512781 -0.39628774 -0.10170527
0.10517483 -0.40436879 -0.15302449
0.10530566 -0.40741453 -0.17222184
0.059972506 -0.39222986 -0.19513598
0.073966727 -0.52651107 -0.19029245
0.05052118 -0.46151999 -0.19556722
0.06491708 -0.5602448 -0.19091362
0.035525471 -0.5704726 -0.19719762
0.078326546 -0.12464106 0.16937804
0.21106748 0.022799551 0.217163
0.10222863 0.04711771 0.17908826
0.24984458 0.16259909 0.19790116
0.1385324 0.31060737 0.19136626
0.28532267 0.28813511 0.16934407
0.084350713 -0.14558578 0.029844232
0.085256964 -0.15239441 -0.00094305724
0.088191174 -0.14346439 -0.028723285
0.10132834 -0.41036344 -0.068167336
0.058132656 -0.37781915 -0.076487631
0.10627262 -0.39475238 -0.083333731
0.10915268 -0.38701564 -0.10150535
0.10379911 -0.41427538 -0.15174781
0.10660162 -0.40776488 -0.17217787
0.062025566 -0.38760614 -0.19621947
0.072845548 -0.53355396 -0.18782556
0.051619515 -0.46167535 -0.19550982
0.068318069 -0.55156517 -0.19464013
0.036945652 -0.56610924 -0.1992971
0.081030302 -0.12270814 0.17050159
0.21344158 0.019742787 0.21632907
0.1044064 0.039668262 0.17674693
0.25574911 0.1708526 0.20106998
0.14490649 0.32916492 0.19692311
0.2866573 0.27772146 0.16699502
0.084759131 -0.16043568 0.026706018
0.087516055 -0.15272015 -0.00082584471
0.089465842 -0.1511656 -0.029550761
0.10464436 -0.40353781 -0.067309611
0.059236474 -0.38049948 -0.076614335
0.10698925 -0.39753264 -0.083446756
0.10988127 -0.38980466 -0.10149676
0.10644339 -0.40985429 -0.15232022
0.11198564 -0.39392862 -0.17475924
0.061914802 -0.39742142 -0.19384402
0.075719416 -0.52698839 -0.19023347
0.053813595 -0.45472243 -0.19756639
0.067104198 -0.55843937 -0.1918003
0.036256779 -0.57514447 -0.19498625
0.083201952 -0.12533873 0.16963175
0.21639977 0.018919826 0.2164261
0.10800292 0.043907762 0.17856991
0.26234075 0.18137276 0.20500287
0.14954557 0.33335811 0.19846934
0.29175943 0.28132874 0.16835961
0.087650999 -0.15592909 0.027908228
0.089774065 -0.15305358 -0.00070982426
0.092057601 -0.14904243 -0.029119693
0.10266449 -0.41588098 -0.068619989
0.060672343 -0.38071516 -0.076541066
0.11038744 -0.39070556 -0.082921393
0.10854999 -0.39980969 -0.10160596
0.065707877 -0.36008927 -0.11684933
0.10705162 -0.41259694 -0.15197
0.11332678 -0.39430147 -0.17471519
0.064356491 -0.39040527 -0.19550398
0.074552126 -0.5340246 -0.18776897
0.053814624 -0.46199748 -0.19539672
0.06854476 -0.55643511 -0.19271277
0.038417425 -0.56632578 -0.19922137
0.085637935 -0.12570024 0.16975668
0.22057788 0.022560894 0.21838841
0.11163184 0.048132002 0.18039301
0.26711494 0.18497282 0.20664427
0.15197511 0.32082194 0.19532719
0.29689136 0.2849136 0.16972318
0.091240346 -0.14660048 0.030198641
0.091347083 -0.15827256 -0.001456216
0.093963288 -0.15183949 -0.029321045
0.10465854 -0.41385677 -0.068305463
0.060314707 -0.39326519 -0.077478915
0.11246796 -0.38869643 -0.082715586
0.10990674 -0.40018892 -0.1015617
0.064216234 -0.38008881 -0.11630761
0.10973383 -0.40819621 -0.15254256
0.11536405 -0.39231831 -0.17510885
0.064554267 -0.39781693 -0.19370919
0.076092415 -0.53200209 -0.18855308
0.055292435 -0.4597958 -0.19604468
0.068635456 -0.55886775 -0.19175041
0.038782194 -0.56866801 -0.19811663
0.08720126 -0.13289201 0.16688827
0.22416626 0.023947597 0.21941638
0.11560427 0.054676771 0.1830509
0.2757628 0.20230573 0.21287069
0.15727647 0.32975799 0.19820997
0.29680201 0.26982576 0.16612405
0.096941397 -0.1227932 0.035756864
0.092884503 -0.16349399 -0.0022055432
0.095850609 -0.15464181 -0.029524453
0.10529836 -0.41661987 -0.068534449
0.062073294 -0.3910197 -0.07720685
0.11456385 -0.38669696 -0.082510039
0.11195945 -0.39817244 -0.10147886
0.066395521 -0.37537146 -0.11635245
0.10962638 -0.41332427 -0.15188709
0.11812122 -0.387986 -0.17593941
0.06743253 -0.38841543 -0.19594318
0.074864283 -0.53902698 -0.18609136
0.054840907 -0.46943676 -0.1931762
0.070777826 -0.55466008 -0.19360048
0.039132278 -0.57101071 -0.19701305
0.090627871 -0.12646759 0.17000875
0.22791713 0.025275946 0.22044778
0.11722018 0.042501926 0.17903718
0.28342339 0.21495527 0.21757564
0.16149558 0.32909971 0.19842175
0.30145189 0.27099997 0.16686872
0.098739959 -0.12801701 0.034792192
0.096406698 -0.15657312 -0.00078926235
0.099305965 -0.14765793 -0.028456621
0.10737871 -0.41463003 -0.068218559
0.06316635 -0.39371958 -0.077337109
0.11541541 -0.38953695 -0.082621813
0.063401788 -0.39780214 -0.094700947
0.11275169 -0.40100071 -0.10147125
0.067511566 -0.37808228 -0.11622045
0.1131824 -0.40660337 -0.15276274
0.067814112 -0.38163629 -0.13587995
0.11747619 -0.39548671 -0.17458345
0.066858687 -0.40064144 -0.19299921
0.076487176 -0.53703487 -0.18687382
0.055966694 -0.4696162 -0.19312023
0.070936918 -0.55711848 -0.19263682
0.040659044 -0.56667572 -0.19910885
0.092445016 -0.13139737 0.16813332
0.22962378 0.019942164 0.21867067
0.12056757 0.044353187 0.18002263
0.28836983 0.21846467 0.21921661
0.16585799 0.3308416 0.19929227
0.30525139 0.26988441 0.16698506
0.098170973 -0.15935361 -0.0011160076
0.10156781 -0.14802521 -0.028345123
0.1079928 -0.4173961 -0.06844984
0.065325797 -0.38902488 -0.076862291
0.1167468 -0.3899242 -0.082580522
0.065943487 -0.39062464 -0.094372317
0.114751 -0.39897922 -0.10139157
0.070130721 -0.37091428 -0.11632169
0.11442526 -0.40696654 -0.15272444
0.071632169 -0.36710447 -0.1369265
0.11946678 -0.39350528 -0.17498073
0.068168029 -0.40085414 -0.19293469
0.076576486 -0.53952456 -0.18603823
0.056228485 -0.47452071 -0.19166261
0.072372131 -0.55512452 -0.19355115
0.041785624 -0.56456864 -0.20013908
0.095054068 -0.12950039 0.16924492
0.23307975 0.021334648 0.21968985
0.12344209 0.043884218 0.18016401
0.29116639 0.21515065 0.21855578
0.16967939 0.33021814 0.19948021
0.30594394 0.25957352 0.16460416
0.10179969 -0.14997143 0.00071706623
0.10398752 -0.14591283 -0.027928039
0.10710976 -0.42490694 -0.069228917
0.067768984 -0.38185585 -0.076189592
0.1159272 -0.39748484 -0.083023593
0.067595661 -0.3883689 -0.094223961
0.11532065 -0.40175292 -0.10139231
0.069406368 -0.38346407 -0.11597519
0.11566693 -0.40733382 -0.1526868
0.071299016 -0.37715989 -0.13612093
0.11855505 -0.40093762 -0.17363432
0.069345832 -0.40104944 -0.1928772
0.077368766 -0.53975928 -0.18601425
0.058414135 -0.46758756 -0.19372262
0.071689069 -0.55975634 -0.19165578
0.042053644 -0.56690562 -0.19904059
0.097799167 -0.12763393 0.170362
0.23604493 0.020443022 0.21977767
0.12819098 0.055033386 0.18449256
0.2954725 0.21634084 0.2194286
0.17224783 0.32002622 0.19698855
0.31195974 0.2653504 0.16658455
0.10302501 -0.1576696 -0.00046613067
0.1051866 -0.15366012 -0.028767556
0.10840182 -0.42529064 -0.069189981
0.068468891 -0.38703156 -0.07652586
0.1173697 -0.39791483 -0.08298035
0.071106263 -0.37629661 -0.093713149
0.11600748 -0.40456629 -0.1013902
0.071712263 -0.37878764 -0.11601669
0.11703791 -0.40774444 -0.15264599
0.073206924 -0.37495682 -0.13623445
0.1250996 -0.38491216 -0.17664349
0.071984679 -0.39409241 -0.19453135
0.077518083 -0.54227257 -0.18517765
0.058285963 -0.47486719 -0.19156295
0.073206514 -0.55779254 -0.19256842
0.043230057 -0.56481189 -0.2000691
0.10101384 -0.12353212 0.17248389
0.23981573 0.021718502 0.22080299
0.1310551 0.052156627 0.18381092
0.29860872 0.21289724 0.2187739
0.17717491 0.32407218 0.19853464
0.31453165 0.25950354 0.16545686
0.11089998 -0.12405086 0.0057113692
0.10874902 -0.14672732 -0.027699217
0.11338596 -0.41381517 -0.067785576
0.070773862 -0.38237649 -0.076046124
0.11954465 -0.39596575 -0.082776248
0.071369 -0.38395184 -0.093906716
0.11963317 -0.39782828 -0.10122706
0.071511544 -0.38890198 -0.11572267
0.11840744 -0.40816006 -0.15260598
0.072993122 -0.38504317 -0.13542464
0.12206582 -0.39942774 -0.17398864
0.071661524 -0.40391445 -0.1921722
0.080583803 -0.53579021 -0.18758354
0.061106104 -0.46561509 -0.19431531
0.073287308 -0.56023967 -0.19160886
0.043179482 -0.56939387 -0.19790158
0.10277577 -0.12848741 0.17060083
0.24144521 0.016363561 0.21901727
0.13374734 0.049297869 0.18311939
0.30499566 0.22088867 0.22194037
0.18117361 0.32337683 0.19872519
0.31758407 0.2560274 0.16494223
0.11434965 -0.11715889 0.0071183071
0.11019091 -0.15201747 -0.028230198
0.11249902 -0.4213393 -0.068566836
0.070108123 -0.39491242 -0.077004269
0.11862919 -0.40351206 -0.083224207
0.072784416 -0.38420498 -0.093840271
0.11943419 -0.40299562 -0.10127134
0.075059243 -0.37684134 -0.11593436
0.11738411 -0.41563249 -0.1516539
0.073512286 -0.39020109 -0.13499075
0.12633449 -0.39043978 -0.17569397
0.074274503 -0.39696264 -0.19382893
0.079907209 -0.5405302 -0.18594018
0.061754771 -0.46816701 -0.19356322
0.073277026 -0.56266171 -0.1906523
0.044325851 -0.56730038 -0.19893226
0.10542864 -0.12663049 0.17170987
0.24627498 0.022142231 0.22190174
0.13663942 0.048785031 0.18325582
0.30846679 0.21980482 0.22203746
0.18419306 0.31795114 0.1975581
0.31952819 0.2503472 0.16379282
0.11497185 -0.12727565 0.0054884776
0.11221315 -0.15238142 -0.02813559
0.11744904 -0.40986392 -0.06716492
0.071782261 -0.39268515 -0.076740921
0.12141407 -0.39915082 -0.082863428
0.073190995 -0.38935807 -0.093959615
0.11995772 -0.40577438 -0.10127613
0.074587002 -0.38691711 -0.11565453
0.1193592 -0.41364801 -0.151925
0.07519228 -0.38797259 -0.13511714
0.12685898 -0.39318213 -0.1752229
0.075463951 -0.39717674 -0.19377327
0.079949073 -0.54301983 -0.18510801
0.064052805 -0.46126628 -0.1956197
0.076208159 -0.5562923 -0.1934396
0.10786106 -0.12706906 0.17182359
0.24787484 0.016774833 0.22011212
0.13968195 0.04823488 0.1833978
0.31423664 0.22546893 0.22443637
0.18817014 0.31723207 0.19774371
0.11606255 -0.13498348 0.0042941645
0.1149995 -0.15037191 -0.027706616
0.11878796 -0.41028246 -0.067127548
0.07280989 -0.39541018 -0.076879494
0.12278219 -0.39957917 -0.082825333
0.075542018 -0.38471273 -0.093712866
0.121294 -0.40619308 -0.10123897
0.07605122 -0.38718897 -0.1155872
0.11910497 -0.41876996 -0.15127929
0.077547394 -0.3833378 -0.13541739
0.12666562 -0.39828393 -0.1743162
0.077304535 -0.39504009 -0.19428104
0.083034888 -0.53655386 -0.18751475
0.0643043 -0.46619272 -0.19416597
0.075488642 -0.5609262 -0.19154719
0.045318119 -0.56978118 -0.19780186
0.11004782 -0.12980014 0.17094052
0.2523579 0.020209312 0.22206709
0.14326213 0.049969077 0.18438342
0.3188059 0.22650582 0.22530642
0.19234349 0.3164621 0.1979363
0.11474004 -0.16545784 -0.029519856
0.12019819 -0.41072839 -0.067088902
0.075597584 -0.38833132 -0.076194704
0.12121684 -0.40955111 -0.083434798
0.076123148 -0.3899084 -0.093825646
0.12276226 -0.40665895 -0.10119896
0.079343922 -0.3776373 -0.11573742
0.12205467 -0.41450128 -0.15185128
0.079014383 -0.38361514 -0.13535064
0.12423937 -0.41043052 -0.17210361
0.077774733 -0.40008011 -0.19307408
0.08625026 -0.53013301 -0.18991855
0.065900683 -0.46405047 -0.19481383
0.07858336 -0.55461514 -0.19433096
0.045193639 -0.57436156 -0.19563943
0.11209494 -0.13251436 0.17004976
0.25181454 0.0082028508 0.21746501
0.14591333 0.047074258 0.18368378
0.31886357 0.21398157 0.22156978
0.19755919 0.32282883 0.20014039
0.1205082 -0.1463666 -0.026855245
0.1222968 -0.40879172 -0.066779271
0.077006556 -0.38860348 -0.076131426
0.1224823 -0.40995708 -0.08340095
0.07843741 -0.38526651 -0.093582049
0.12402888 -0.40706575 -0.10116515
0.080304556 -0.38036814 -0.11561953
0.12248641 -0.41724735 -0.15151432
0.080410592 -0.38388428 -0.13528785
0.12938291 -0.39915708 -0.17424373
0.078615882 -0.40271842 -0.19244356
0.084762938 -0.53710848 -0.18746857
0.065121695 -0.47367606 -0.19196683
0.076280013 -0.56361496 -0.19057053
0.045903001 -0.57449794 -0.19560747
0.11591291 -0.12391835 0.17416033
0.25600505 0.011709511 0.21940908
0.14960618 0.051161587 0.18549207
0.32377419 0.2173813 0.22319248
0.2021998 0.32684118 0.20166099
0.11710361 -0.17601222 -0.030615792
0.11891407 -0.42336825 -0.068391129
0.076890886 -0.39619774 -0.076696105
0.12218077 -0.41510448 -0.083693825
0.078772672 -0.39042458 -0.093707278
0.12450622 -0.40984893 -0.10117391
0.081106566 -0.38307276 -0.11550938
0.12607452 -0.41058761 -0.15239635
0.081189394 -0.38657787 -0.13504964
0.13459949 -0.38791245 -0.17638266
0.079788074 -0.40294626 -0.19239113
0.08633887 -0.53513527 -0.18825713
0.067022443 -0.46915588 -0.19332255
0.078525931 -0.55947173 -0.19242227
0.046085123 -0.57683897 -0.19451579
0.11718555 -0.13116443 0.17126316
0.25678617 0.0041260123 0.21667394
0.15183325 0.045929253 0.18394944
0.32815561 0.21843654 0.22405156
0.20362277 0.31184953 0.1977897
0.12400191 -0.15210474 -0.027301416
0.12177517 -0.41907594 -0.067808956
0.077871591 -0.39893484 -0.076839805
0.12744884 -0.40370557 -0.082843952
0.082140543 -0.38090727 -0.093278117
0.12662464 -0.40791377 -0.1010979
0.083066978 -0.38091582 -0.11549746
0.12817024 -0.40866601 -0.15266767
0.084102139 -0.3795318 -0.13553151
0.13276161 -0.397677 -0.17461187
0.080669224 -0.40560177 -0.19176015
0.08405184 -0.54434288 -0.18499926
0.067666724 -0.47173074 -0.19257405
0.078513592 -0.56190926 -0.19146807
0.048211686 -0.57034111 -0.19767204
0.12012159 -0.12941241 0.17237777
0.25983551 0.0031048059 0.2167494
0.15628123 0.052246392 0.18660936
0.33198401 0.21715373 0.22414619
0.20865658 0.3157565 0.19932377
0.12447434 -0.16231591 -0.028485425
0.12077317 -0.42659703 -0.068598107
0.078354448 -0.40411845 -0.07719291
0.1289364 -0.40419984 -0.082806595
0.082667589 -0.38611391 -0.093396366
0.12486582 -0.41786554 -0.10123047
0.082588561 -0.39102134 -0.11522229
0.12960134 -0.40914375 -0.15263206
0.084593736 -0.38472059 -0.13510402
0.13745572 -0.38886374 -0.17631125
0.084002025 -0.3963415 -0.19398135
0.0889102 -0.53349805 -0.18902141
0.069765456 -0.46725714 -0.19392204
0.080907427 -0.55782139 -0.193317
0.04802829 -0.57492161 -0.19551387
0.12132354 -0.13666236 0.1694749
0.26273626 0.0021218657 0.21681952
0.15933725 0.051627755 0.18674257
0.33562577 0.21591896 0.22423413
0.21217832 0.3125878 0.19882101
0.12525414 -0.4176169 -0.067467354
0.079708502 -0.40439975 -0.077134907
0.12698787 -0.41407207 -0.083429605
0.084569417 -0.38395703 -0.093244001
0.12853444 -0.41118789 -0.10107282
0.08496812 -0.3864097 -0.11526769
0.13165326 -0.40721777 -0.15290591
0.085986234 -0.38500899 -0.13504425
0.083318457 -0.40614074 -0.19164506
0.088922083 -0.53599912 -0.18819302
0.07034643 -0.46982753 -0.19317748
0.080847502 -0.56024885 -0.19236478
0.04969167 -0.57064354 -0.19760793
0.12401525 -0.1348784 0.17057636
0.26697087 0.0055711269 0.21875861
0.16092594 0.044089854 0.18434599
0.33679006 0.20797473 0.22201279
0.21411319 0.30236036 0.19627839
0.12245354 -0.42978635 -0.068812422
0.080926329 -0.40465692 -0.077083334
0.12742275 -0.41685435 -0.083563328
0.086846173 -0.37933084 -0.093005359
0.13060695 -0.40925252 -0.1010001
0.087239087 -0.38177973 -0.11531834
0.12794432 -0.42168346 -0.15105394
0.088259354 -0.38039142 -0.13535286
0.086007118 -0.39924186 -0.19330382
0.085696876 -0.54739487 -0.18413104
0.070804901 -0.47237608 -0.19243868
0.08316011 -0.55613983 -0.19421658
0.050825104 -0.56856883 -0.19864222
0.12611513 -0.13765621 0.16968039
0.26852763 0.00012618303 0.2169548
0.16499661 0.048047006 0.1861631
0.34289652 0.21341187 0.22440377
0.2173008 0.29677445 0.19510064
0.12705858 -0.42085829 -0.067680091
0.083927155 -0.39765742 -0.076394394
0.085867755 -0.39189619 -0.093403012
0.088276237 -0.38455832 -0.11520169
0.13009737 -0.41980147 -0.15132676
0.088248767 -0.38803905 -0.13474646
0.086934723 -0.40192729 -0.19267377
0.088984601 -0.54102337 -0.18653661
0.072487161 -0.47027975 -0.19308683
