# .PCD v0.7 - Point Cloud Data file format
VERSION 0.7
FIELDS x y z
SIZE 4 4 4
TYPE F F F
COUNT 1 1 1
WIDTH 1460
HEIGHT 1
VIEWPOINT 0 0 0 1 0 0 0
POINTS 1460
DATA ascii
-0.28871098 1.0108545 -0.088932753
-0.28181797 1.0053658 -0.10311043
-0.280478 1.003855 -0.11754263
-0.27069831 0.99610513 -0.13004401
-0.28931063 1.0086527 -0.15445854
-0.28959456 1.0079644 -0.17257982
-0.24577096 1.0290856 -0.20436023
-0.30911937 1.0181937 -0.24349944
-0.24158651 1.02479 -0.26187015
-0.31949759 1.0239836 -0.27405727
-0.59096909 1.1701325 -1.0877267
-0.81035751 1.564285 -1.8707386
-0.43007573 1.1195354 0.019399837
-0.34697413 1.1337157 -0.0069681704
-0.3623645 1.0686518 -0.025103066
-0.35703665 1.1422565 -0.038792443
-0.29394633 1.0173132 -0.056829117
-0.28020546 1.0066323 -0.073759757
-0.27991697 1.005957 -0.088309512
-0.28108284 1.006351 -0.10315104
-0.28173789 1.0062935 -0.11797851
-0.27592602 1.001375 -0.13161279
-0.28854966 1.0096731 -0.15450063
-0.29075971 1.0103786 -0.17339602
-0.30466419 1.0167277 -0.24127211
-0.23621374 1.0213195 -0.25778627
-0.3151086 1.0226445 -0.27159908
-0.5928514 1.1745406 -1.0941097
-0.8099674 1.5700914 -1.8772575
-0.42700428 1.1195374 0.018913686
-0.33876219 1.1279509 -0.0083375722
-0.36296499 1.1504834 -0.038211823
-0.29117721 1.0168413 -0.056949887
-0.27144206 1.001653 -0.073595658
-0.28520119 1.0113817 -0.088848926
-0.28034428 1.0073335 -0.10319126
-0.2770181 1.0043561 -0.11722759
-0.27717105 1.0037911 -0.13216263
-0.28583479 1.0092685 -0.15389182
-0.28613997 1.0086148 -0.17188983
-0.29478484 1.0113562 -0.23563258
-0.23838662 1.0250816 -0.26055133
-0.30896837 1.0200274 -0.26788619
-0.58779109 1.1746024 -1.0879192
-0.80861944 1.575016 -1.8816311
-0.42984173 1.1239681 0.019702971
-0.34114408 1.1326069 -0.0077049322
-0.3923119 1.0950534 -0.021189395
-0.35819462 1.1482289 -0.038556732
-0.33441964 1.0507989 -0.055260196
-0.28074223 1.0100733 -0.073890522
-0.28044802 1.009396 -0.088555843
-0.26963261 1.0009065 -0.10181949
-0.27628255 1.0053271 -0.11726704
-0.28234047 1.0091255 -0.13373354
-0.28701708 1.011706 -0.15458362
-0.2892116 1.0124338 -0.17347999
-0.30122519 1.0176053 -0.24022433
-0.23903695 1.0274035 -0.26194638
-0.30285251 1.0173693 -0.2641713
-0.58848959 1.1782935 -1.0922058
-0.80264133 1.5754642 -1.8752805
-0.44633657 1.1389205 0.02346009
-0.33467925 1.1285827 -0.0087399967
-0.35868785 1.1512893 -0.038440339
-0.33349562 1.0520155 -0.055309508
-0.29194573 1.0201139 -0.074241489
-0.28565073 1.0149143 -0.089098491
-0.27683109 1.0078509 -0.10298987
-0.27155066 1.0033906 -0.11651555
-0.27761856 1.0072461 -0.13275412
-0.28232723 1.0098962 -0.15332437
-0.28456649 1.0106878 -0.17197388
-0.29135168 1.0122088 -0.23458311
-0.23216999 1.0224524 -0.25649077
-0.30374545 1.0197735 -0.26547152
-0.58794028 1.1813715 -1.094401
-0.79834807 1.5778342 -1.8732214
-0.44125652 1.1374615 0.022549577
-0.33703423 1.1332494 -0.008106783
-0.4416385 1.1370335 -0.014790259
-0.34513009 1.1401602 -0.039552007
-0.30112785 1.0286769 -0.074541621
-0.28488633 1.01591 -0.089138418
-0.27013785 1.0043316 -0.10217993
-0.27476412 1.0073096 -0.11734671
-0.2729519 1.0052869 -0.13177118
-0.28349689 1.0123354 -0.15401565
-0.27806905 1.0074435 -0.16968913
-0.29235435 1.014563 -0.23576282
-0.2387657 1.0306443 -0.26336691
-0.30116326 1.0195954 -0.2642616
-0.60003209 1.1924942 -1.1196485
-0.79512525 1.5809333 -1.8733013
-0.44015476 1.1389012 0.022491671
-0.32375622 1.122005 -0.010467723
-0.4247424 1.1263647 -0.016849741
-0.34400341 1.1412933 -0.039583936
-0.36748976 1.0815971 -0.053998824
-0.31228259 1.0387684 -0.07489413
-0.29209599 1.0228969 -0.089846455
-0.27739361 1.0111892 -0.10334635
-0.2701571 1.0051968 -0.11658761
-0.27423713 1.0076244 -0.13231678
-0.28087091 1.0117862 -0.15339987
-0.28309494 1.012599 -0.17205028
-0.28445449 1.0102332 -0.23124878
-0.23201622 1.0255638 -0.25790709
-0.29692224 1.01802 -0.26179218
-0.60993087 1.2019931 -1.1406972
-0.79130572 1.5828061 -1.8712271
-0.43704206 1.1389039 0.022007637
-0.32611015 1.1266575 -0.0098333061
-0.44132224 1.1415218 -0.01465898
-0.39817163 1.1072745 -0.052808553
-0.32927522 1.0535617 -0.075408906
-0.28536522 1.0193619 -0.089383036
-0.27068183 1.0076798 -0.10253622
-0.27526903 1.0106823 -0.11781808
-0.26955223 1.0056746 -0.13133365
-0.27813631 1.0113701 -0.15278907
-0.27848005 1.0107905 -0.17054075
-0.28362706 1.0113015 -0.23129125
-0.22969204 1.0249231 -0.25655925
-0.29954162 1.0217018 -0.26434582
-0.60927135 1.2051713 -1.1428947
-0.79152763 1.5896742 -1.8798878
-0.43581864 1.1404796 0.021945179
-0.32492277 1.1278347 -0.0098655894
-0.44400352 1.1461771 -0.01422295
-0.41677916 1.1240474 -0.052093036
-0.2963486 1.0296081 -0.090435132
-0.27580336 1.0132225 -0.10342633
-0.27447337 1.0116955 -0.11785775
-0.27071342 1.0081576 -0.13188446
-0.27540895 1.0109366 -0.15217727
-0.27388325 1.0089507 -0.16902964
-0.28279576 1.0123668 -0.23133324
-0.23757997 1.0347583 -0.26480961
-0.29692543 1.0215437 -0.26313573
-0.60284245 1.2046953 -1.1346127
-0.78449053 1.5892487 -1.8713871
-0.43077382 1.1389308 0.021040067
-0.31862238 1.1236064 -0.01089289
-0.43888843 1.1446382 -0.014781758
-0.41170827 1.1224129 -0.052303582
-0.36094055 1.0820367 -0.076401383
-0.31919548 1.0489721 -0.092494816
-0.26719335 1.0080936 -0.10232779
-0.27371216 1.0126578 -0.11789515
-0.26802343 1.0076144 -0.13140933
-0.27272716 1.0104378 -0.1515626
-0.27122986 1.0084761 -0.16829124
-0.27666417 1.0093656 -0.22795665
-0.23527746 1.0340842 -0.26346028
-0.28916022 1.0174347 -0.25815755
-0.78122866 1.592299 -1.871461
-0.4276765 1.1388807 0.020559445
-0.32608071 1.1336403 -0.0092610866
-0.43769318 1.1461521 -0.014840722
-0.42628452 1.1362081 -0.051745202
-0.32223776 1.0531623 -0.092875317
-0.27036205 1.0120879 -0.10293236
-0.26905546 1.0105813 -0.11713635
-0.26727262 1.0085566 -0.13144568
-0.26432762 1.0054911 -0.14898886
-0.26293707 1.0036333 -0.16522279
-0.27588025 1.0103555 -0.22799508
-0.24169229 1.0424223 -0.27033871
-0.29006711 1.0197736 -0.25945324
-0.78063941 1.5981007 -1.877969
-0.42078853 1.1356692 0.019237518
-0.31814396 1.1275321 -0.010617353
-0.4404467 1.1506832 -0.014398493
-0.4290832 1.1407163 -0.0516464
-0.39232346 1.1108388 -0.077405319
-0.3233422 1.0557749 -0.093085289
-0.27358291 1.0160114 -0.10353397
-0.27419782 1.0160028 -0.11836327
-0.26274011 1.0063865 -0.13045283
-0.26936483 1.0107806 -0.15097988
-0.26789773 1.0088414 -0.16758475
-0.27163324 1.0085444 -0.22575091
-0.27898312 1.012877 -0.25195664
-0.77678382 1.5999113 -1.8758879
-0.41963404 1.137114 0.019181967
-0.32212138 1.1340233 -0.0096499845
-0.4392305 1.1522024 -0.014456782
-0.43179646 1.1453216 -0.051550906
-0.4049131 1.1231037 -0.077833816
-0.28055573 1.0231893 -0.10471129
-0.26951158 1.0139494 -0.11760478
-0.26387781 1.0088714 -0.13100255
-0.26476333 1.0087978 -0.14971134
-0.26522234 1.0083734 -0.16684572
-0.2672857 1.006852 -0.22351101
-0.28329358 1.0178663 -0.25576416
-0.77243149 1.6021588 -1.8738159
-0.41458389 1.1355287 0.018280089
-0.32430181 1.1387964 -0.0090161562
-0.43407574 1.1506687 -0.015013926
-0.42079341 1.13906 -0.051990293
-0.41151515 1.1308393 -0.078106046
-0.27195746 1.0180168 -0.10360986
-0.27642336 1.0210953 -0.11923691
-0.26116934 1.0083234 -0.13052607
-0.26018071 1.0067838 -0.1484413
-0.26815334 1.0123007 -0.16843721
-0.26823172 1.0092194 -0.2246888
-0.27215496 1.0110222 -0.24826892
-0.7716074 1.6081117 -1.8803239
-0.41725162 1.1400635 0.019069925
-0.31974691 1.136289 -0.0097074285
-0.42513683 1.145891 -0.01606264
-0.41960719 1.1405178 -0.052045219
-0.40840647 1.1306984 -0.078105584
-0.28859079 1.032984 -0.10621329
-0.27562907 1.0220644 -0.11927313
-0.26614702 1.0138284 -0.13210063
-0.26320183 1.0107101 -0.1497831
-0.2599321 1.0073409 -0.1653631
-0.2656956 1.00881 -0.22358494
-0.27648282 1.015975 -0.25207442
-0.76564026 1.6083145 -1.8739542
-0.41227046 1.1383716 0.018172979
-0.32363746 1.1428387 -0.0087402128
-0.42393693 1.1473573 -0.016117532
-0.41454384 1.1388118 -0.052250408
-0.41887182 1.1415859 -0.078485891
-0.40481886 1.1295223 -0.10073772
-0.27811268 1.0261723 -0.10482284
-0.28058797 1.0276868 -0.12050655
-0.2691839 1.0178354 -0.13316265
-0.26055372 1.0101283 -0.14916353
-0.26288396 1.011229 -0.16695254
-0.2701605 1.0138881 -0.22704099
-0.2688581 1.0116441 -0.24708578
-0.76231146 1.6112998 -1.8740193
-0.41116467 1.1397164 0.018122926
-0.3208313 1.1420732 -0.0090973228
-0.42279229 1.1487465 -0.016169116
-0.41534868 1.1417625 -0.052225795
-0.41966274 1.1445537 -0.078591928
-0.40564129 1.1324424 -0.10095761
-0.28504115 1.0333784 -0.10600008
-0.27789778 1.0270631 -0.12014148
-0.2722356 1.0218186 -0.13422352
-0.26170385 1.0125189 -0.14984989
-0.25844851 1.0091331 -0.16542931
-0.26591384 1.0120436 -0.22479415
-0.27149689 1.015236 -0.24963318
-0.7600112 1.6150664 -1.8762254
-0.40430996 1.1364031 0.016807437
-0.31128353 1.1340349 -0.010779846
-0.41583839 1.1454396 -0.016964778
-0.41415304 1.1432014 -0.052278705
-0.41266745 1.141239 -0.078480408
-0.40638947 1.1354424 -0.10118003
-0.26945022 1.0217773 -0.11857826
-0.26954061 1.0212274 -0.13374427
-0.26280168 1.0149662 -0.15053804
-0.26137313 1.0130417 -0.16701895
-0.26686007 1.0143834 -0.22596973
-0.27237958 1.0175549 -0.25092596
-0.75492305 1.6161426 -1.8719964
-0.40120468 1.1362786 0.016333237
-0.31673369 1.142495 -0.0094820783
-0.41267085 1.1453502 -0.017266802
-0.41097274 1.1431079 -0.052408308
-0.41332778 1.1443431 -0.078590557
-0.42043456 1.1497469 -0.10260303
-0.27241838 1.0259135 -0.11941399
-0.27059007 1.0237782 -0.13429466
-0.26757604 1.0205321 -0.15253747
-0.26423323 1.0170208 -0.16861087
-0.26255289 1.0125976 -0.22372444
-0.26308095 1.0118356 -0.2446778
-0.7513997 1.6192372 -1.8720602
-0.40004736 1.137656 0.016283266
-0.31056848 1.1380637 -0.010500148
-0.4190864 1.1531807 -0.016331047
-0.4059445 1.1413184 -0.052608635
-0.40828362 1.1425703 -0.078531347
-0.41925907 1.1511394 -0.10265327
-0.27160734 1.0268687 -0.11944821
-0.27731284 1.030979 -0.13638738
-0.26119584 1.0168649 -0.15060636
-0.26343939 1.0179566 -0.16864443
-0.25830305 1.0107362 -0.22147606
-0.26396653 1.0141368 -0.24596934
-0.74545455 1.6193171 -1.8656818
-0.40076414 1.1406239 0.016654253
-0.30278382 1.1317484 -0.011847746
-0.40837133 1.146584 -0.01761581
-0.4009335 1.1394982 -0.052807402
-0.4032568 1.1407665 -0.078470573
-0.27835652 1.0335233 -0.13693693
-0.26782358 1.0239621 -0.15325999
-0.26995602 1.0249562 -0.17179301
-0.25234792 1.0074404 -0.21808505
-0.26316106 1.0150858 -0.24600334
-0.74465746 1.6250961 -1.872177
-0.39590317 1.1387293 0.015767299
-0.4053362 1.1463076 -0.017909758
-0.40361136 1.1440569 -0.052706301
-0.40592784 1.1453338 -0.078629836
-0.26524243 1.0232635 -0.15263453
-0.26374561 1.0212495 -0.16948617
-0.25508732 1.0110787 -0.22039695
-0.26410639 1.0173047 -0.24729139
-0.73905325 1.6248426 -1.8657898
-0.39660546 1.1416956 0.016139209
-0.40036017 1.1444631 -0.018451292
-0.40240774 1.1454551 -0.052755516
-0.39331532 1.1369984 -0.078341976
-0.25886127 1.0195768 -0.15070182
-0.26834935 1.0268183 -0.17185836
-0.25768539 1.0148758 -0.22271423
-0.25991321 1.015555 -0.24481049
-0.73719639 1.6298015 -1.8701392
-0.38978291 1.1382829 0.014830023
-0.40098611 1.1475408 -0.018256046
-0.39735553 1.1436528 -0.052953549
-0.39206964 1.1384338 -0.078391969
-0.26537263 1.02679 -0.15335865
-0.27110276 1.0308884 -0.173452
-0.25172251 1.0115685 -0.21932189
-0.26238716 1.0192958 -0.2473612
-0.73531187 1.6347616 -1.8744874
-0.39047527 1.1412412 0.015203096
-0.39415285 1.1440202 -0.019040849
-0.3980391 1.1466689 -0.052927822
-0.38899049 1.1381588 -0.078382276
-0.27004397 1.0324366 -0.15535918
-0.268453 1.0303065 -0.17270516
-0.2509335 1.0124702 -0.21935295
-0.25493476 1.0146966 -0.24236004
-0.73273134 1.6386099 -1.8766854
-0.38565585 1.1392616 0.014320768
-0.38927794 1.1420304 -0.019576002
-0.39312619 1.1446874 -0.053118765
-0.38409504 1.1361551 -0.078312308
-0.25649893 1.0222648 -0.15079388
-0.26229224 1.026518 -0.17039433
-0.25361469 1.0161533 -0.22166541
-0.25586167 1.0169132 -0.24364693
-0.73131359 1.6431375 -1.8810234
-0.37341052 1.1307887 0.011761397
-0.39182004 1.1466668 -0.019131139
-0.39004549 1.144397 -0.053237762
-0.39229518 1.1457436 -0.078643329
-0.26142344 1.0274937 -0.17042716
-0.25107729 1.0156639 -0.22055504
-0.26159456 1.023469 -0.24871512
-0.72269553 1.6402974 -1.8681971
-0.37411186 1.1337094 0.012137011
-0.39247587 1.1496714 -0.018931583
-0.38323349 1.140772 -0.05350095
-0.26775172 1.0346652 -0.17357969
-0.25027367 1.0165635 -0.22058515
-0.25583047 1.0202003 -0.24496959
-0.7209143 1.6450887 -1.8725373
-0.36923537 1.1317661 0.01125478
-0.39305452 1.1527525 -0.018734131
-0.38943335 1.148828 -0.053257748
-0.2739875 1.0419334 -0.17673513
-0.25614828 1.0233285 -0.22518867
-0.25823545 1.0239857 -0.24752025
-0.71481311 1.6451142 -1.8661463
-0.37540907 1.1396413 0.012886517
-0.38813543 1.1507747 -0.019267924
-0.38449863 1.1468332 -0.053446457
-0.25699174 1.0257084 -0.22636206
-0.24924012 1.017838 -0.24125354
-0.71217906 1.648906 -1.8683368
-0.36517891 1.1325754 0.01075545
-0.38513696 1.1503736 -0.019553773
-0.38149428 1.1464205 -0.053559635
-0.24788485 1.0192009 -0.22067177
-0.25013128 1.020066 -0.2425395
-0.71232426 1.6553763 -1.8769615
-0.36766946 1.137157 0.011550859
-0.3802484 1.1483436 -0.020084985
-0.37843645 1.1460574 -0.05367399
-0.25368604 1.0260283 -0.22527644
-0.25250641 1.023865 -0.24508968
-0.70946884 1.6593075 -1.8791517
-0.36463761 1.1368109 0.011090614
-0.37714848 1.1480346 -0.020372912
-0.37532529 1.1457425 -0.053789418
-0.25114417 1.0255032 -0.22416297
-0.2532405 1.0262524 -0.2463802
-0.70417035 1.660248 -1.8749007
-0.36528367 1.1397392 0.011468545
-0.37229156 1.1459512 -0.020901471
-0.37961727 1.1521355 -0.053616427
-0.25361192 1.0293753 -0.2264794
-0.24595369 1.0214087 -0.24136804
-0.70066124 1.6630197 -1.8749392
-0.36051169 1.1376262 0.010594465
-0.37654585 1.1523293 -0.020210989
-0.37838542 1.1534505 -0.053657465
-0.25275901 1.0302848 -0.22650774
-0.24512433 1.0222943 -0.2413957
-0.6971426 1.6657789 -1.8749762
-0.36120191 1.1404904 0.010975204
-0.3717581 1.1501544 -0.020735838
-0.36992151 1.1478559 -0.053979676
-0.25034586 1.0296035 -0.22538848
-0.24917409 1.0274385 -0.24520199
-0.68998688 1.6632326 -1.8642746
-0.35823917 1.1400346 0.010520175
-0.37054241 1.1514361 -0.020775042
-0.36507159 1.1457047 -0.054160275
-0.25108674 1.0320495 -0.2265618
-0.24828002 1.0283806 -0.24523078
-0.68629438 1.6660883 -1.8643103
-0.35522529 1.1396234 0.010064229
-0.36385846 1.1476266 -0.021544442
-0.25181252 1.0345047 -0.22773509
-0.24738255 1.0293195 -0.24525914
-0.68101656 1.6669099 -1.8600504
-0.3504996 1.1374266 0.0091944635
-0.36444634 1.1506041 -0.021339137
-0.25419265 1.0384387 -0.23005189
-0.24810737 1.0316784 -0.24654688
-0.8922981 1.5639697 -1.8388568
-0.68218917 1.6756796 -1.8729625
-0.34933659 1.138629 0.0091588646
-0.36501795 1.1535898 -0.021133635
-0.25006723 1.0363083 -0.22778843
-0.24566355 1.031099 -0.24531193
-0.89221394 1.5700366 -1.8452698
-0.67473066 1.6732906 -1.8622576
-0.34292907 1.1346087 0.0078767389
-0.36028498 1.151315 -0.021653321
-0.24600446 1.0341072 -0.22552258
-0.24641481 1.0334188 -0.2465979
-0.89635086 1.5794904 -1.8600826
-0.67368382 1.6788833 -1.8687247
-0.34705678 1.1409621 0.0090910047
-0.35551023 1.1490743 -0.022173561
-0.24240904 1.0313377 -0.2441002
-0.88598549 1.5766954 -1.8454781
-0.67011189 1.6815476 -1.8687513
-0.33880574 1.1352842 0.007391721
-0.35600835 1.1521088 -0.021968115
-0.24306196 1.0337455 -0.24538808
-0.88448393 1.5822221 -1.8497965
-0.66481781 1.6822798 -1.8644838
-0.34114638 1.1399223 0.0081904531
-0.34772515 1.1463206 -0.022970013
-0.23752278 1.0301331 -0.24162672
-0.88445103 1.5881417 -1.8562006
-0.3400332 1.1410339 0.0081595331
-0.34482315 1.1456997 -0.023243271
-0.24915139 1.0429137 -0.25174505
-0.88152266 1.5911975 -1.8562925
-0.33712071 1.1404505 0.0077121109
-0.35238895 1.1557167 -0.022068106
-0.88110965 1.597469 -1.8627044
-0.34454036 1.1504439 0.0097554103
-0.34934485 1.1552199 -0.022343859
-0.88349771 1.606652 -1.8754271
-0.33643454 1.1445782 0.0080635771
-0.34811124 1.156424 -0.022375874
-0.87934279 1.6089637 -1.8734185
-0.33868337 1.1492674 0.0088630319
-0.34687343 1.1576238 -0.022407331
-0.87799853 1.6141791 -1.8777201
-0.33240137 1.1450509 0.0075901076
-0.34569368 1.1587596 -0.022436686
-0.87993497 1.6218239 -1.888319
-0.33633152 1.1515282 0.0088047832
-0.87342632 1.6226023 -1.8821102
-0.32825777 1.1455977 0.0071164891
-0.87167048 1.6281575 -1.8864176
-0.33045429 1.1503055 0.0079171956
-0.8646946 1.6274472 -1.8780881
-0.32761845 1.1495852 0.0074767545
-0.86244279 1.6315475 -1.8802761
-0.32641286 1.1507084 0.0074497759
-0.85983115 1.6359761 -1.8824714
-0.32179138 1.1482663 0.0065942779
-0.85122621 1.6348987 -1.8720504
-0.31892055 1.1475551 0.0061549395
-0.84797639 1.6380169 -1.8721304
-0.31433558 1.1450626 0.0053015873
-0.84420067 1.6416141 -1.8722214
-0.31639865 1.1498461 0.0061032176
-0.8358103 1.6402546 -1.8617886
-0.31024095 1.145435 0.0048394203
-0.83634967 1.6471579 -1.870278
-0.31239754 1.1501197 0.0056440681
-2.3909366 3.3657486 -2.9116731
-0.83323342 1.6500654 -1.8703481
-0.29808509 1.1364475 0.0023166984
-2.3885965 3.383518 -2.9213824
-0.832416 1.6563451 -1.8767396
-0.30181926 1.1430144 0.0035344735
-2.3997307 3.4151165 -2.9469168
-0.82891929 1.6595626 -1.8768146
-0.2974433 1.1402897 0.0026888102
-2.5304585 4.6829395 -3.0974381
-0.82576257 1.6624478 -1.8768808
-2.5262825 4.7080522 -3.1098056
-0.82131296 1.664665 -1.8748491
-2.4945357 4.6887617 -3.0877995
-0.81796432 1.6676848 -1.874916
-2.0711808 4.0666656 -2.8992693
-0.81332779 1.670025 -1.872884
-2.0526023 4.0641375 -2.8903391
-0.81070453 1.6741636 -1.8750556
-0.80348337 1.6733389 -1.8667039
-0.80084217 1.6774489 -1.8688719
-0.79908985 1.6825522 -1.8731433
-0.79424071 1.68496 -1.8711056
-0.79262507 1.6899016 -1.8753712
-2.3063486 4.6727738 -3.0132201
-2.2683592 4.6443644 -2.9842815
-1.5749857 3.5059774 -2.9139981
-0.77536494 1.6921366 -1.8608086
-1.5437376 3.4730682 -2.8733563
-0.77299374 1.6958712 -1.8629607
-1.5332373 3.477037 -2.871609
-0.76778734 1.6966836 -1.8587997
-2.2302268 4.6739931 -2.988183
-0.76572353 1.7018752 -1.8630615
-2.2361865 4.7211876 -3.0169485
-0.75387496 1.6958833 -1.8441689
-2.2439961 4.7672491 -3.0457203
-0.75389695 1.7028089 -1.8526329
-2.6503358 5.4743261 -2.4969301
-0.74888653 1.7033825 -1.8484628
-2.6656911 5.5414982 -2.5268304
-0.74161941 1.7022896 -1.8400873
-2.5981185 5.4646358 -2.4811523
-0.73931563 1.7075608 -1.8443429
-2.5710645 5.4536772 -2.4706798
-2.1552663 4.7451982 -3.0040593
-0.73328567 1.7071636 -1.8380648
-2.5539484 5.4605589 -2.4695168
-2.1881258 4.8391485 -3.0685265
-0.73168159 1.711843 -1.8423097
-2.539227 5.4738445 -2.4714453
-2.1209433 4.7497082 -2.9955733
-0.72529447 1.7116864 -1.836032
-2.5199025 5.4766045 -2.4682009
-2.131608 4.8033037 -3.0297978
-0.72617245 1.7195227 -1.8465909
-2.4999669 5.4822102 -2.4659703
-2.0567591 4.6988816 -2.9458435
-0.72209394 1.7226486 -1.846628
-2.4810894 5.489747 -2.4647672
-2.0532537 4.7291346 -2.9621818
-0.7239871 1.733062 -1.8614
-2.461781 5.4922781 -2.4615052
-2.0490868 4.7549467 -2.9757802
-1.4214795 3.5929401 -2.9144385
-2.4468796 5.5052795 -2.4634013
-1.3944182 3.5654688 -2.880513
-2.4298351 5.5141916 -2.4632223
-1.3733323 3.5493758 -2.8584197
-0.70716304 1.7338839 -1.8467468
-2.411726 5.5210152 -2.4620023
-0.70259476 1.7355838 -1.844667
-2.3915477 5.5237093 -2.4587076
-0.69802558 1.7372643 -1.8425854
-2.3744407 5.5324259 -2.4585094
-0.69506049 1.7410905 -1.8447139
-2.3565998 5.5439863 -2.4593184
-3.1143484 5.2672462 -2.8742943
-2.3372698 5.5460262 -2.4560158
-3.128324 5.3223505 -2.9019644
-2.3240738 5.5627394 -2.459934
-2.3037353 5.5626011 -2.4555862
-2.7605381 4.8506336 -2.5924647
-54.952396 113.09801 -0.041181311
-2.2885776 5.5775919 -2.4584458
-2.8009367 4.9438906 -2.6442833
-1.8471074 4.7139707 -2.8902464
-54.766991 113.76116 -0.035564169
-2.2723675 5.5904818 -2.4602644
-2.7256935 4.8661032 -2.5890648
-1.8681667 4.7988672 -2.9463203
-54.596123 114.4127 -0.030011877
-2.2568638 5.6004333 -2.4610667
-2.7145212 4.8815517 -2.5925329
-1.8427926 4.7808509 -2.9282742
-2.2423694 5.6148748 -2.463917
-2.7020516 4.8951254 -2.5948446
-1.835961 4.8048534 -2.9404128
-2.6114254 6.4339867 -2.4888952
-2.2258174 5.6226664 -2.4636738
-2.6861537 4.9002571 -2.5925465
-1.8340325 4.8380356 -2.9594178
-2.6338267 6.5365658 -2.5287306
-2.2121468 5.6390924 -2.4675438
-2.6740527 4.9160967 -2.5959976
-1.821738 4.8506308 -2.9633069
-2.5679467 6.4465208 -2.4855447
-2.1937001 5.645113 -2.4662416
-2.6530035 4.9164982 -2.5902352
-1.7762879 4.7887149 -2.9136696
-2.6207767 4.8571253 -2.8877597
-2.5274646 6.4164381 -2.4678667
-2.1799922 5.6664133 -2.4721358
-2.6049345 4.8761492 -2.5591469
-1.7828422 4.847702 -2.95046
-2.5923262 4.8472404 -2.8738103
-2.4987965 6.4039011 -2.4584405
-2.1678793 5.6844072 -2.477031
-2.5627072 4.8425255 -2.5326569
-1.7820401 4.8847237 -2.9721813
-2.5762961 4.8549156 -2.872525
-2.480509 6.4172459 -2.4599349
-2.1492956 5.6902657 -2.4757085
-2.5444 4.84622 -2.5291789
-1.7546088 4.8626308 -2.9513507
-2.5659947 4.8716469 -2.877569
-2.4557168 6.4130192 -2.4541452
-2.147012 5.7311611 -2.4919481
-2.5252261 4.84515 -2.523397
-1.7371315 4.8612118 -2.945621
-2.5410972 4.8618441 -2.8648729
-2.4373696 6.4262266 -2.4556251
-2.1237772 5.7264843 -2.4854493
-2.5015392 4.8415985 -2.5153029
-1.7295132 4.8850756 -2.9577072
-2.5220191 4.8661308 -2.8610351
-2.4124501 6.4269781 -2.4516115
-2.090796 5.7011442 -2.4686069
-2.4860477 4.8511667 -2.5152581
-1.7024572 4.864912 -2.9382257
-2.4939122 4.855649 -2.8470559
-2.3903899 6.4314756 -2.4494314
-2.0757251 5.7151117 -2.4713886
-2.4666438 4.8526449 -2.5106065
-1.675529 4.8423519 -2.9173839
-2.4722817 4.8537579 -2.8394077
-2.3728337 6.4466209 -2.4518001
-2.0553212 5.7164288 -2.4679716
-2.4449687 4.8502388 -2.5036478
-1.6416672 4.8022375 -2.8841984
-2.4562795 4.8609858 -2.8380878
-2.3526452 6.4526863 -2.4505355
-2.0358245 5.717289 -2.464565
-2.4271035 4.8506508 -2.4989913
-1.6229802 4.7964993 -2.87571
-2.4295433 4.8469315 -2.8228338
-2.3305416 6.4569559 -2.4483349
-2.0154595 5.7184477 -2.4611371
-2.41045 4.858037 -2.4977725
-1.5966223 4.7735195 -2.8548648
-2.4117372 4.8525925 -2.8202336
-2.3072824 6.4641418 -2.4469991
-1.9967521 5.7287064 -2.4617956
-2.390398 4.8596201 -2.4930952
-1.5882533 4.7995882 -2.8682628
-2.3796823 4.8340511 -2.8011587
-2.2905402 6.4786196 -2.4493568
-1.9789796 5.7335711 -2.4604359
-2.3744693 4.8664274 -2.4918678
-1.5773407 4.8130808 -2.8734705
-2.3354788 4.7925711 -2.7668819
-2.2685533 6.4800739 -2.4462447
-1.9603598 5.7362576 -2.4580395
-2.3611217 4.8742313 -2.4917939
-1.5686239 4.8323956 -2.8827846
-2.2995579 4.7611609 -2.7402098
-2.2472734 6.4861908 -2.444927
-1.9400228 5.737114 -2.4545884
-2.3444126 4.8813591 -2.4905512
-1.5500599 4.8285751 -2.8756311
-2.2606349 4.7289429 -2.712255
-2.2281649 6.5038929 -2.4481108
-1.9269773 5.761961 -2.4624364
-2.3298826 4.8922768 -2.4916034
-1.5278454 4.8193922 -2.864332
-2.2348154 4.7189503 -2.6994953
-1.3658737 4.427104 -2.892478
-2.2086825 6.5116291 -2.4477088
-1.9115733 5.7729635 -2.4641454
-2.3160532 4.9027233 -2.4926543
-1.5072067 4.8072777 -2.8517053
-2.2140698 4.7159166 -2.6918015
-1.3587443 4.4471898 -2.9040525
-2.1924999 6.5280018 -2.4509392
-1.8953096 5.7817907 -2.4648173
-2.299336 4.9045353 -2.4891083
-1.4924936 4.8107538 -2.8500376
-2.2011435 4.7232518 -2.6917121
-1.3382916 4.4313459 -2.8874943
-2.1708765 6.5364189 -2.4504795
-1.8828099 5.8061914 -2.4726582
-2.2857795 4.9172411 -2.4912932
-1.4712627 4.8009968 -2.8387439
-2.1902258 4.7392936 -2.6966681
-1.3186958 4.4215937 -2.8753459
-2.1573706 6.5665722 -2.4591057
-1.8661927 5.8198948 -2.4753373
-2.2678795 4.9221287 -2.4888699
-1.4536934 4.8009701 -2.8342957
-2.1844227 4.7647505 -2.7079496
-1.3059988 4.4307117 -2.8779957
-2.1336424 6.5631552 -2.4541283
-2.2496653 4.9245815 -2.485297
-1.4397337 4.8062267 -2.8339846
-2.2226086 4.8692608 -2.7724171
-1.2919035 4.4316912 -2.8747499
-2.1259608 6.6033888 -2.4673264
-1.6357399 5.2933788 -2.2150142
-2.2414231 4.9417515 -2.4909332
-1.4236606 4.805522 -2.8295608
-2.1978788 4.855792 -2.7583754
-1.3178252 4.5467129 -2.9602828
-0.99742532 3.7013226 -2.8417928
-2.1019337 6.6024179 -2.4632211
-1.6179665 5.2951393 -2.2125876
-2.2234759 4.946454 -2.4884925
-1.4096431 4.8129225 -2.8305933
-2.1812456 4.862401 -2.7569726
-1.2874858 4.5041933 -2.9229755
-0.99541873 3.7315025 -2.8668349
-2.068809 6.5823765 -2.4508841
-2.2065692 4.953043 -2.4871962
-1.3913826 4.8129044 -2.8261094
-2.175739 4.8898745 -2.7694917
-1.2900329 4.5611477 -2.9625664
-0.9880054 3.7498546 -2.8800387
-48.683914 133.8898 0.21115138
-2.0513957 6.5961761 -2.4531517
-1.7739211 5.8469486 -2.4702125
-2.1945434 4.9670172 -2.4905012
-1.3740031 4.8080559 -2.8189356
-2.1728208 4.9207811 -2.784543
-1.2465018 4.4761486 -2.8927314
-0.97115123 3.7343025 -2.8612404
-48.365864 134.45775 0.22280337
-2.0274937 6.5949078 -2.4490287
-1.7534529 5.8470621 -2.4666948
-2.1824467 4.9809628 -2.4937999
-1.3572799 4.8073616 -2.8144779
-2.1387379 4.8925076 -2.7603395
-1.2329204 4.4809723 -2.8924055
-48.056496 134.91188 0.23335673
-2.0084724 6.6041832 -2.4494662
-1.7405695 5.8661699 -2.4724557
-2.1656775 4.9822521 -2.4902091
-1.3393302 4.8003893 -2.8059292
-2.1053879 4.8613453 -2.7348821
-1.2181082 4.4797697 -2.8876548
-47.63541 135.2795 0.24551512
-1.9823483 6.5961313 -2.4426076
-1.7200797 5.8661528 -2.4689267
-2.15171 4.9945402 -2.4923387
-1.3226805 4.7995567 -2.8014648
-2.0838504 4.8580065 -2.7271223
-1.1995199 4.469161 -2.8754909
-1.9586946 6.6019335 -2.4411399
-1.7028437 5.881815 -2.472548
-2.1326504 4.9968901 -2.4887128
-1.3013542 4.7892127 -2.7901189
-2.0565038 4.8430357 -2.711762
-1.1839951 4.4723625 -2.8736405
-1.939628 6.6109896 -2.4415572
-1.6839807 5.8834982 -2.4700577
-2.1183667 5.0066986 -2.4896886
-1.2848848 4.7859907 -2.784297
-2.0329547 4.8333158 -2.7002034
-1.1680614 4.4671297 -2.8659232
-1.9154228 6.604496 -2.4356158
-1.6679587 5.8937778 -2.4716763
-2.1058002 5.0180607 -2.4918172
-1.2659227 4.774725 -2.7730012
-2.0189207 4.8404608 -2.7000403
-1.1539903 4.4676027 -2.8626385
-1.8960118 6.6159801 -2.4369013
-1.648867 5.8978128 -2.4701803
-2.084533 5.0138569 -2.4847353
-1.2457036 4.7616205 -2.7603173
-2.0041227 4.8479319 -2.6998634
-1.1380631 4.4643946 -2.8563762
-1.8737403 6.6258764 -2.4372175
-1.6279286 5.9023886 -2.4686306
-2.0713565 5.0278769 -2.4879832
-1.229095 4.7648935 -2.7585335
-1.9828587 4.8441076 -2.6920788
-1.1249442 4.4750633 -2.8604198
-1.85386 6.6324406 -2.4367006
-1.6124812 5.9146719 -2.4712574
-2.0501461 5.0235081 -2.4808912
-1.2152758 4.7693958 -2.7581692
-1.9671077 4.8495121 -2.6906257
-1.1143816 4.4869652 -2.8659883
-1.8329103 6.6392794 -2.4361494
-1.5940173 5.920682 -2.4707701
-2.0357358 5.0330467 -2.4818387
-1.2103708 4.8061523 -2.7796535
-1.9494746 4.8509731 -2.6866364
-1.0984731 4.483592 -2.859714
-1.8136753 6.6479349 -2.4365253
-1.5777944 5.9306908 -2.4723561
-2.0199587 5.0357819 -2.4793537
-1.2011827 4.8266468 -2.7902119
-1.9314823 4.8477507 -2.6801324
-1.0883943 4.4973583 -2.86675
-1.7892102 6.6508417 -2.4340909
-1.555442 5.9306211 -2.4687247
-2.0039496 5.0459623 -2.480269
-1.1931739 4.8598804 -2.8089013
-1.9133394 4.8517294 -2.6773787
-1.7652134 6.6437407 -2.4281118
-1.5365452 5.9317751 -2.4661903
-1.984735 5.0452948 -2.4754546
-1.1848429 4.8843832 -2.8221755
-1.8939381 4.8490648 -2.6708453
-1.130079 4.7504897 -3.0520561
-1.7435628 6.648037 -2.4266281
-1.5154457 5.9287758 -2.4615724
-1.9702222 5.0546198 -2.4763792
-1.1704375 4.8909922 -2.8231237
-1.8745837 4.8463135 -2.6643071
-1.0958508 4.6850219 -2.9984899
-1.7196715 6.6407537 -2.42064
-1.4984989 5.9363537 -2.4621079
-1.9544377 5.0571203 -2.4738753
-1.1539165 4.887249 -2.8172576
-1.8558545 4.840826 -2.656522
-1.0908566 4.7202325 -3.0217266
-1.7012936 6.6560764 -2.4236705
-1.4812212 5.9463482 -2.4636376
-1.939095 5.0667048 -2.4747775
-1.1299726 4.8594513 -2.7949774
-1.8367562 4.8402157 -2.6512294
-1.0646911 4.6817198 -2.9888358
-1.6809072 6.6646223 -2.4239774
-1.4614077 5.9475136 -2.4610558
-1.9253985 5.0779047 -2.4768336
-1.1150874 4.8638506 -2.7945487
-1.817544 4.8372126 -2.6446784
-1.0844734 4.8125725 -3.0843611
-1.6550024 6.6577091 -2.417913
-1.4400654 5.9466829 -2.4574163
-1.9054427 5.0772495 -2.4719813
-1.0918177 4.8401031 -2.7749779
-1.7985216 4.8364325 -2.6393762
-1.053416 4.758563 -3.0396333
-1.6296006 6.6481352 -2.4109702
-1.4227051 5.9564877 -2.458926
-1.8916804 5.0883465 -2.4740257
-1.0759314 4.8403177 -2.771812
-1.7767864 4.827343 -2.6290236
-1.049522 4.8037462 -3.0701888
-2.1107621 8.3163548 -1.8982517
-1.6277109 6.7238703 -2.4383855
-1.4023092 5.9552345 -2.4553022
-1.8734167 5.0892277 -2.4703238
-1.055822 4.8242617 -2.7577221
-1.7594637 4.8280306 -2.6249886
-1.0412894 4.8333273 -3.0889275
-2.0971277 8.3658152 -1.9078138
-1.6166381 6.7633715 -2.4513466
-1.3858196 5.964654 -2.4568269
-1.8611457 5.0995359 -2.472383
-1.0438987 4.8363047 -2.7627606
-1.741061 4.8220587 -2.6171818
-1.0167439 4.7961788 -3.0575233
-2.0824766 8.4179983 -1.9178914
-1.6006361 6.7896566 -2.4588392
-1.3683505 5.9742842 -2.458317
-1.84473 5.1067581 -2.472101
-1.0285883 4.8383684 -2.7609475
-1.7239162 4.8249073 -2.6143899
-0.99663037 4.7786884 -3.0408506
-2.0710807 8.4944296 -1.9335909
-1.5763925 6.7939558 -2.4572194
-1.3460984 5.9733343 -2.4546199
-1.8317573 5.1220989 -2.4764035
-1.0107845 4.8367128 -2.756356
-1.7042503 4.8217297 -2.607801
-0.98577791 4.8046331 -3.0565753
-2.0676188 8.5862341 -1.9533942
-1.5542018 6.7927704 -2.4538844
-1.3306316 5.9870005 -2.4581738
-1.8143246 5.1247807 -2.4738276
-0.99572968 4.8364239 -2.7531929
-1.6887101 4.8261013 -2.6062758
-0.94568682 4.7004452 -2.975044
-1.5366496 6.8095751 -2.4577687
-1.3117421 5.9873562 -2.4555757
-1.8035891 5.1390324 -2.4781604
-0.97822666 4.8258991 -2.7432077
-1.6696643 4.8178377 -2.5971909
-0.9399634 4.737443 -2.9996777
-1.5139441 6.810792 -2.4552906
-1.294681 5.9989586 -2.4580626
-1.7870281 5.1460457 -2.477854
-0.96201724 4.8236475 -2.7386525
-1.652599 4.8203964 -2.5943799
-1.4930097 6.828331 -2.4590561
-1.2729717 5.999917 -2.4553645
-1.771279 5.155055 -2.4786885
-0.94484359 4.8237495 -2.7354095
-1.6347277 4.8208885 -2.5903003
-1.473009 6.835907 -2.459305
-1.2567563 6.011158 -2.4578669
-1.7546213 5.1595621 -2.4772377
-0.93083781 4.8273077 -2.7349594
-1.6151958 4.8149977 -2.5824406
-1.4524351 6.8459587 -2.4604142
-1.2379631 6.0159292 -2.4572625
-1.7420685 5.1743259 -2.4815156
-0.91423166 4.8228283 -2.7290292
-1.5925363 4.8010015 -2.569525
-1.432896 6.8556738 -2.4615505
-1.2216477 6.0270662 -2.4597516
-1.7269685 5.1804714 -2.4812162
-0.89749759 4.8140097 -2.7203956
-1.5786461 4.8066702 -2.5692506
-1.4116937 6.8633242 -2.4617424
-1.204838 6.0406113 -2.4632249
-1.7126682 5.1910248 -2.4831886
-0.88279253 4.8175888 -2.7199104
-1.5616522 4.8065567 -2.5651686
-0.85732716 4.7810736 -3.0130515
-1.3867236 6.8646097 -2.4591508
-1.1845516 6.047884 -2.4635601
-1.6983165 5.2039251 -2.4862847
-0.86616319 4.8194151 -2.718009
-1.5470564 4.8147192 -2.5661175
-0.83994079 4.7789803 -3.0080943
-1.366563 6.8718433 -2.4593639
-1.1685493 6.0610905 -2.4670489
-1.6831096 5.2123156 -2.487098
-0.85044599 4.8145065 -2.7120917
-1.5339266 4.8245592 -2.5683386
-0.80844414 4.697156 -2.9443138
-1.3443584 6.8699045 -2.4559672
-1.1505295 6.0653353 -2.4664431
-1.6726136 5.2283468 -2.4925237
-0.8364774 4.81775 -2.7116184
-1.5214573 4.8317652 -2.5693226
-0.81287348 4.7894154 -3.0100942
-1.3250561 6.8863697 -2.4597325
-1.1353673 6.0875883 -2.4739711
-1.6549455 5.2328024 -2.4910159
-0.81967211 4.8108406 -2.7043085
-1.5022181 4.8276606 -2.5626819
-0.79896206 4.7967172 -3.0125334
-1.2995784 6.8850269 -2.4562118
-1.1200236 6.1191711 -2.4855075
-1.6364996 5.2351065 -2.4883561
-0.80310386 4.8124161 -2.7023902
-1.4875172 4.8356161 -2.5636089
-0.7804451 4.7884293 -3.0031428
-1.279319 6.8919802 -2.4563971
-1.0971955 6.1009092 -2.4746695
-1.6196296 5.2391205 -2.4868546
-0.78793722 4.8093281 -2.6978219
-1.4683396 4.829051 -2.5557132
-0.76610613 4.7895079 -3.001184
-1.2565254 6.8922548 -2.4538386
-1.0780866 6.1051283 -2.4740043
-1.605018 5.2493429 -2.4887838
-0.77246547 4.8084021 -2.6945858
-1.4528925 4.832552 -2.5541229
-0.74992049 4.7847328 -2.9947827
-1.2385383 6.9105015 -2.4585073
-1.0563562 6.0911684 -2.4652038
-1.5889819 5.2505522 -2.4861629
-0.75697052 4.8031406 -2.6886518
-1.4367375 4.8293533 -2.5487769
-0.73670572 4.7916708 -2.9972293
-1.2148041 6.9060516 -2.4541371
-1.0364091 6.090764 -2.4624889
-1.5727528 5.2588787 -2.4869173
-0.74345404 4.8124132 -2.6922095
-1.4176987 4.8248653 -2.5421154
-0.72128642 4.790761 -2.993762
-1.1929364 6.9225788 -2.457772
-1.0145745 6.090683 -2.4597006
-1.5557534 5.2650509 -2.4865201
-0.72654974 4.8116226 -2.6889088
-1.4015573 4.8284464 -2.5404952
-0.7082634 4.8119984 -3.0064111
-1.7348496 9.5540628 -2.1380074
-1.171638 6.9246063 -2.4561245
-0.99814302 6.1033916 -2.4631267
-1.5410783 5.2726822 -2.4872999
-0.70785421 4.7875938 -2.6707296
-1.3854767 4.8273573 -2.5363824
-0.68668586 4.7709808 -2.9735599
-1.6923782 9.4931746 -2.1210763
-1.1529174 6.940321 -2.4598596
-0.97833246 6.098093 -2.4583912
-1.5263708 5.2802668 -2.4880745
-0.69005179 4.7676167 -2.6552718
-1.3680301 4.8221178 -2.5297446
-0.67782849 4.8036432 -2.9950969
-1.6675063 9.5304728 -2.1273191
-1.1313168 6.9470205 -2.459954
-0.96004885 6.10639 -2.4597313
-1.5107119 5.2904825 -2.4899483
-0.66992563 4.737359 -2.6329944
-1.3512369 4.8234615 -2.5268505
-0.66538286 4.8204784 -3.0048387
-1.6325868 9.5324068 -2.1249387
-1.1095393 6.96556 -2.4644465
-0.93901306 6.1105003 -2.458956
-1.4935967 5.2964287 -2.489527
-0.64996952 4.7155585 -2.6161027
-1.3330951 4.8206396 -2.52143
-0.64365053 4.7896285 -2.9792559
-1.2737662 7.7392292 -1.6989696
-1.0897475 6.9764986 -2.4663594
-0.92083329 6.113986 -2.4582806
-1.4793575 5.3083687 -2.4925516
-0.63267368 4.6953335 -2.6006513
-1.3170745 4.8215914 -2.5185444
-1.5769722 9.570364 -2.1289184
-1.0656184 6.9691868 -2.4610472
-0.90282595 6.1243439 -2.4606175
-1.4595649 5.3033514 -2.4864194
-0.61547315 4.6793098 -2.5878913
-1.3004016 4.8204288 -2.514395
-1.0415577 6.9617825 -2.4557316
-0.88289601 6.1233788 -2.4578586
-1.4439002 5.310955 -2.4871452
-0.60127497 4.6818848 -2.587352
-1.2850718 4.8233118 -2.5127614
-1.0194284 6.9586926 -2.4522464
-0.86503899 6.128933 -2.4581833
-1.4291682 5.3158455 -2.4867642
-0.58715427 4.6801329 -2.5841203
-1.2705574 4.823595 -2.509901
-0.99548721 6.9511127 -2.4469225
-0.84655166 6.1368532 -2.4594822
-1.4119619 5.3214931 -2.4863138
-0.57204062 4.6763773 -2.5795016
-1.2589996 4.8410406 -2.5170557
-0.55992252 4.7204313 -2.9163287
-0.97158909 6.957655 -2.4468837
-0.82644272 6.1473026 -2.4617162
-1.3934247 5.3228283 -2.4835715
-0.55614007 4.6769609 -2.5775383
-1.2454233 4.8522682 -2.5204251
-1.3780098 9.3289852 -2.05984
-0.95097077 6.9635487 -2.4469647
-0.80712211 6.1436396 -2.4579551
-1.3783103 5.3323374 -2.4854171
-0.5423739 4.6771297 -2.575654
-1.2325225 4.8632193 -2.5238075
-1.3466529 9.3169928 -2.0547764
-2.0829663 7.643589 -2.0042884
-0.92997837 6.9670658 -2.4461439
-0.79016215 6.1557293 -2.4613037
-1.3609494 5.3285055 -2.4804456
-0.52889669 4.6793337 -2.5751228
-1.2191825 4.8674564 -2.5234473
-1.3127527 9.3077841 -2.0501537
-2.0456014 7.6122379 -1.9924314
-0.9067632 6.9708738 -2.4452298
-0.76925647 6.1545124 -2.4584727
-1.3443321 5.3360338 -2.4811153
-0.51262361 4.6713057 -2.5677512
-1.2072805 4.8847752 -2.5305736
-1.2836435 9.3297596 -2.0528409
-2.0078154 7.5783911 -1.979918
-0.88353443 6.974597 -2.444308
-0.75026292 6.1667919 -2.4617295
-1.3276787 5.3435049 -2.4817784
-0.49801689 4.6757131 -2.5685117
-1.1874002 4.8751087 -2.5213318
-2.0033526 7.6528244 -1.9982444
-0.864115 6.9894524 -2.4479373
-0.73189765 6.1696539 -2.4609942
-1.313048 5.3549414 -2.4847419
-0.4845466 4.6777692 -2.5679691
-1.1755241 4.8900375 -2.5272076
-1.9673465 7.6107016 -1.9838581
-0.84240961 6.9880571 -2.4453018
-0.71472126 6.1815157 -2.4643128
-1.2951312 5.3487282 -2.4786122
-0.47031567 4.6735234 -2.5633569
-1.1632812 4.8982534 -2.5293448
-1.9438961 7.6251621 -1.9850892
-0.82083905 6.9960098 -2.4461896
-0.69562876 6.1866703 -2.4645407
-1.2790115 5.3581676 -2.4803994
-0.45712018 4.6839371 -2.5681973
-1.1440915 4.8904591 -2.5213499
-1.1554986 9.2951021 -2.0356154
-1.9105755 7.604702 -1.9764888
-0.79522264 6.9903145 -2.4416206
-0.67569828 6.201108 -2.4687386
-1.2604668 5.3589783 -2.4776142
-0.44172662 4.6882467 -2.5689085
-1.1249804 4.8825788 -2.5133517
-1.1246822 9.2823038 -2.0305159
-1.8870206 7.6139736 -1.9764298
-0.77472121 6.9979515 -2.442539
-0.65804201 6.2105312 -2.4710188
-1.2456911 5.3702078 -2.4805536
-0.42775899 4.6859379 -2.5656404
-1.1083924 4.8806553 -2.5091453
-1.1011264 9.3249731 -2.0383098
-1.8613908 7.6061907 -1.9718549
-0.75389791 7.0032053 -2.4425578
-0.63872993 6.2062817 -2.467211
-1.2325125 5.3809204 -2.4835355
-0.41425604 4.6877618 -2.5650773
-1.0933213 4.8782406 -2.5049791
-1.8334634 7.6039829 -1.9684747
-0.73275423 7.0154982 -2.4451995
-0.62081176 6.2225313 -2.4724774
-1.215071 5.38585 -2.4830151
-0.4002493 4.6917248 -2.5658336
-1.0754992 4.8743124 -2.4994867
-1.8049605 7.5993309 -1.9644341
-0.70824981 7.0187311 -2.4441712
-0.59883118 6.2208023 -2.4695489
-1.1992989 5.3971729 -2.4859095
-0.38397753 4.6874504 -2.5611122
-1.0599023 4.8786755 -2.4990177
-1.023837 9.4630833 -2.0635567
-1.776504 7.5895672 -1.9591178
-0.68860888 7.0353775 -2.4486239
-0.58077019 6.2277126 -2.470789
-1.1854038 5.4125261 -2.4911022
-0.3710635 4.6954079 -2.5645955
-1.0412765 4.8681211 -2.4897704
-0.99150169 9.4524279 -2.0588996
-1.7499503 7.5866976 -1.9557567
-0.66725075 7.0474577 -2.451237
-1.7451054 7.605258 -2.3537903
-0.561225 6.2301359 -2.4699564
-1.1670415 5.4105892 -2.4871681
-0.35719702 4.7013173 -2.56669
-1.0269763 4.8742523 -2.4905717
-0.96113265 9.4586048 -2.0581498
-1.7252418 7.5857487 -1.9530807
-0.64486206 7.0501738 -2.4502783
-1.7307602 7.6459332 -2.3647192
-0.54122061 6.2279415 -2.4670944
-1.1527814 5.4213123 -2.4900939
-0.34274781 4.7008963 -2.5647223
-1.0113031 4.871748 -2.486367
-1.7004952 7.5946999 -1.9529333
-0.62387305 7.0785141 -2.4590559
-1.7039381 7.6480303 -2.3623564
-0.52134913 6.2371674 -2.4692426
-1.1341289 5.4216299 -2.4872634
-0.3277694 4.7025995 -2.5640719
-0.99572003 4.8758736 -2.4858797
-1.675182 7.5962248 -1.9508579
-0.60360962 7.0925827 -2.4625776
-0.50191432 6.2301674 -2.46439
-1.11633 5.4216576 -2.4844549
-0.31421244 4.704093 -2.5634792
-0.98035884 4.8776474 -2.4841547
-2.0606594 9.211813 -1.8719555
-1.6505845 7.5900154 -1.9468974
-0.58218908 7.0949564 -2.4616423
-1.7015887 7.8424082 -2.4221671
-0.48394459 6.2390432 -2.46661
-1.1002219 5.4211931 -2.4816954
-0.30160812 4.7181244 -2.5709898
-0.96698499 4.8810902 -2.4837286
-2.048929 9.3005028 -1.8883337
-1.6258004 7.5986996 -1.9467266
-0.55901581 7.090394 -2.4579837
-1.6636311 7.8004665 -2.4050224
-0.46378237 6.2342939 -2.4627171
-1.082127 5.4234705 -2.4799898
-0.28743365 4.7217035 -2.5717065
-0.95284241 4.8913698 -2.4869914
-2.033179 9.374938 -1.901614
-1.5976571 7.5931988 -1.9426367
-0.53343624 7.0836506 -2.4533322
-1.6390067 7.81388 -2.4064889
-0.44318092 6.2479048 -2.4668133
-1.0640328 5.4256821 -2.4782789
-0.27209097 4.7295732 -2.5750554
-0.93815422 4.899498 -2.4889929
-2.0162084 9.4394817 -1.9128739
-1.5735089 7.5990505 -1.9418379
-0.51148212 7.078804 -2.4497149
-1.6192927 7.8431215 -2.4134119
-0.42437196 6.2474737 -2.464973
-1.0462855 5.4254503 -2.4754517
-0.25871471 4.7350836 -2.5771437
-0.92083931 4.8926268 -2.4822307
-1.9944223 9.4849319 -1.9200249
-0.67390668 8.6368198 -1.8551394
-1.5455855 7.5883465 -1.9364738
-0.48898602 7.0809774 -2.4487071
-1.6161877 7.9464989 -2.4451156
-0.40543306 6.2584763 -2.4681296
-1.0295237 5.4294968 -2.4748962
-0.24445644 4.7385168 -2.5778444
-0.90639567 4.8983545 -2.4829919
-0.22592549 4.7719898 -2.9080827
-1.9684001 9.4985914 -1.9206256
-0.64754981 8.6393118 -1.8539541
-1.5238701 7.5934525 -1.9357429
-0.46795279 7.0876322 -2.4495187
-1.5921891 7.9472694 -2.4427946
-0.38692576 6.2624826 -2.4682958
-1.0149032 5.4352627 -2.475529
-0.23077771 4.7397375 -2.5772235
-0.89387935 4.9057913 -2.4850516
-1.9366827 9.5159788 -1.9215169
-1.4941896 7.5854588 -1.9309382
-0.44252056 7.0805264 -2.4448457
-1.5590348 7.9305573 -2.4340999
-0.36590004 6.2735338 -2.4713471
-0.99549067 5.4352379 -2.4726312
-0.21594931 4.7600102 -2.5886412
-0.87697256 4.907548 -2.4832447
-0.64662528 7.9700956 0.44146031
-0.61982608 7.9022999 0.010052398
-1.9016745 9.5038662 -1.9163821
-1.4675155 7.5791531 -1.9268606
-0.42161113 7.0893612 -2.4465303
-1.5405772 7.9688997 -2.4440639
-0.34775603 6.2842607 -2.4745233
-0.9782356 5.4369297 -2.4709225
-0.20230234 4.7632408 -2.5893574
-0.8624537 4.9131279 -2.4839897
-0.61089486 7.8455 0.4335472
-0.59453285 7.896924 0.011097863
-1.8698641 9.5059748 -1.914299
-1.4429184 7.5821905 -1.9253783
-0.39863902 7.0842228 -2.442836
-1.5140001 7.9699898 -2.441633
-0.32828522 6.2904434 -2.475631
-0.96188796 5.4429188 -2.4714823
-0.18859695 4.7812023 -2.5994744
-0.8474707 4.9165401 -2.4834764
-0.58674717 7.8499746 0.43484533
-0.56709307 7.8640471 0.01184018
-1.8380641 9.507966 -1.9122074
-1.4158469 7.5733252 -1.9206403
-0.37626523 7.0883369 -2.4426818
-1.4845364 7.9570198 -2.4345548
-0.30852216 6.2919903 -2.4747162
-0.94506705 5.4466715 -2.4708998
-0.17503524 4.8054342 -2.6136258
-0.83247608 4.9199009 -2.4829586
-0.56316811 7.8618231 0.43668586
-0.54065144 7.8410349 0.012692168
-1.8047824 9.5026541 -1.9085803
-0.43929681 7.5928078 -1.6065679
-1.3903165 7.5714474 -1.9178464
-0.35425943 7.0993767 -2.4451768
-1.458037 7.9579077 -2.4321115
-0.28911066 6.3003235 -2.4768169
-0.92692345 5.4438152 -2.4669034
-0.1608064 4.8170023 -2.6196785
-0.81704861 4.9210873 -2.4811833
-0.51388931 7.7778568 0.012969092
-1.7761065 9.5037622 -1.9065819
-0.41674992 7.5993547 -1.6066091
-1.3657877 7.5618668 -1.9131846
-0.33270022 7.0985899 -2.443289
-1.4313005 7.944171 -2.4251151
-0.27008116 6.2970943 -2.4739227
-0.91350192 5.4558258 -2.4709144
-0.14700812 4.8221636 -2.6217165
-0.80436969 4.9282665 -2.4832137
-0.48705193 7.7597198 0.013927653
-0.4925442 8.3423243 -0.69710398
-1.7404222 9.4937344 -1.9018692
-0.39310038 7.608345 -1.6071389
-1.3443143 7.5861044 -1.917474
-0.31025201 7.1024752 -2.4431126
-1.4059 7.9567957 -2.4264774
-0.25029582 6.2984381 -2.4729905
-0.89495057 5.4552135 -2.4680147
-0.13190249 4.8104858 -2.6129384
-0.78776962 4.9273853 -2.4801507
-0.11088121 4.8254175 -2.9347494
-0.46595049 7.8262901 0.015894249
-0.46528575 8.3516512 -0.69642127
-1.7086155 9.502779 -1.9012145
-0.36580986 7.5954981 -1.6025705
-1.3286732 7.6410894 -1.9301798
-0.28594232 7.1157732 -2.4463592
-1.3777261 7.9553251 -2.4231956
-0.2286208 6.302125 -2.4729643
-0.87807071 5.4632854 -2.4696517
-0.11554271 4.8030491 -2.6067836
-0.77397865 4.941329 -2.4858463
-0.093132883 4.761404 -2.8873329
-0.43920833 7.7904272 0.016601101
-0.43842679 8.3458757 -0.69454443
-1.6755251 9.4969807 -1.8975581
-0.34320307 7.6018047 -1.6025894
-1.3106992 7.6792088 -1.9383712
-0.2643545 7.1147575 -2.4444516
-1.3517448 7.9581633 -2.4214971
-0.21015249 6.3124161 -2.4760885
-0.86077499 5.4645557 -2.467907
-0.1016956 4.805954 -2.6074634
-0.75889772 4.9444342 -2.4853032
-0.079335883 4.7642088 -2.8881245
-0.41958052 7.8291845 0.018099383
-0.41090214 8.3026123 -0.68961638
-1.6460265 9.4928579 -1.8945158
-0.31953549 7.5861177 -1.5976331
-1.2935948 7.7096872 -1.9446931
-0.24331135 7.1276922 -2.4478407
-1.3274486 7.9557276 -2.4183419
-0.19130568 6.3134966 -2.4751847
-0.84636617 5.472002 -2.4696238
-0.087565444 4.7961769 -2.6000636
-0.74685037 4.9557047 -2.4898157
-0.065554157 4.769001 -2.8903687
-0.39672866 7.8805723 0.019945756
-0.38756213 8.3613377 -0.6931141
-0.32251433 7.7387075 -1.2824495
-1.6119655 9.4895277 -1.8912969
-0.29572654 7.5923386 -1.5975817
-1.2739204 7.7479696 -1.9528081
-0.2208887 7.1359453 -2.449399
-1.2729717 7.8088961 -2.3672185
-0.17139362 6.3122787 -2.473223
-0.82898867 5.4777126 -2.4701071
-0.072887771 4.7927055 -2.5966644
-0.73133707 4.9609966 -2.4904859
-0.051156968 4.785975 -2.9013107
-0.37441775 7.9493599 0.022036627
-0.36295423 8.4300156 -0.69734597
-0.29134732 7.6392679 -1.2634237
-1.5783917 9.4884748 -1.8885771
-0.26870769 7.5791073 -1.5929967
-1.2450082 7.7362967 -1.947314
-0.19649604 7.1559248 -2.4552519
-1.237537 7.7624235 -2.3492808
-0.14993748 6.3271084 -2.4781892
-0.81158185 5.4833612 -2.4705837
-0.056696303 4.7829266 -2.5891562
-0.71653104 4.9705009 -2.4936516
-0.034974396 4.7785811 -2.8946986
-0.35528997 8.0679531 0.024732128
-0.33298755 8.3566723 -0.6898694
-0.26892102 7.6527023 -1.2644701
-1.5476735 9.4942389 -1.8874258
-0.24573934 7.5753469 -1.5907867
-1.2216201 7.7480574 -1.9483312
-0.17449108 7.1429234 -2.4489028
-1.2147313 7.7788124 -2.3522041
-0.13093594 6.3234129 -2.4752591
-0.79462147 5.4865913 -2.4699519
-0.04291074 4.7877445 -2.591167
-0.70098734 4.9712744 -2.4918365
-0.021035701 4.769002 -2.8867366
-0.32937464 8.0541449 0.025771931
-0.30874914 8.4126673 -0.69310021
-0.24467704 7.6513529 -1.262858
-1.5169357 9.499896 -1.8862648
-0.22191751 7.5813131 -1.5907141
-1.4837686 9.4160986 -2.3993599
-0.15265255 7.1813431 -2.4619021
-1.2182305 7.9498644 -2.4059598
-0.11123874 6.3334303 -2.4782968
-0.77838087 5.4941587 -2.4715822
-0.028298877 4.7820063 -2.5864151
-0.68720835 4.9826708 -2.4962685
-0.0064444095 4.7675323 -2.8845594
-0.30481604 8.0101671 0.026299968
-0.30332413 8.4413586 -0.33852196
-0.28454626 8.4436321 -0.69431907
-0.22157547 7.6474075 -1.2608681
-1.4859483 9.4855919 -1.881165
-0.19890572 7.5749598 -1.5879432
-1.4485692 9.3758364 -2.3860328
-0.13122323 7.1962595 -2.4661214
-1.1988007 7.9751358 -2.4120181
-0.092396483 6.3387651 -2.4793692
-0.76344138 5.4991636 -2.472137
-0.014498904 4.790946 -2.5911047
-0.67591822 5.0001602 -2.5045011
0.0074272826 4.7741194 -2.8882351
-0.27822685 8.0362415 0.02798982
-0.27731651 8.4973965 -0.33908945
-0.25613204 8.4347782 -0.69211274
-0.19595265 7.6385527 -1.2578927
-1.4521711 9.4915714 -1.8798702
-0.17397609 7.5856838 -1.5888951
-1.4170235 9.3936892 -2.3879783
-0.10804846 7.2509575 -2.4851971
-1.1656519 7.9496183 -2.400933
-0.07141272 6.3349466 -2.4763248
-0.74542272 5.5069323 -2.4736898
0.00081358105 4.7914562 -2.5903406
-0.66246146 5.0245924 -2.5163574
0.022765554 4.7746067 -2.8874679
-0.52680767 4.2505746 -2.8596463
-0.25431141 8.0721226 0.029705897
-0.24734341 8.4009743 -0.3343184
-0.22867724 8.4108315 -0.68874258
-0.17202997 7.6467953 -1.257985
-1.4198635 9.4872303 -1.8766624
-0.14969695 7.5743332 -1.5849555
-1.3864958 9.3989849 -2.3867993
-0.087208726 7.4295378 -2.5509861
-1.1382649 7.9423065 -2.3961012
-0.051516503 6.3378906 -2.4763324
-0.72906291 5.5143375 -2.4753006
0.015368536 4.7855635 -2.5855794
-0.64248443 4.9973497 -2.4982774
0.037458606 4.7831516 -2.8925498
-0.52407831 4.3202314 -2.9141219
-0.23022844 8.110424 0.031475082
-0.22070323 8.396842 -0.33281922
-0.20230882 8.4216566 -0.68822718
-0.16585629 7.6959324 -0.95188105
-0.1476867 7.6377211 -1.2550592
-1.3879931 9.4851894 -1.8739525
-0.12567893 7.5726509 -1.5832074
-1.3585857 9.4208746 -2.3901277
-0.062762342 7.3530416 -2.5207427
-0.031613737 6.3430576 -2.4773355
-0.71432811 5.5327072 -2.4825671
0.029896103 4.7817283 -2.5821588
-0.62752694 5.002142 -2.4989367
0.052013569 4.7774115 -2.8874476
-0.20815399 8.1385784 0.032999113
-0.19579998 8.407567 -0.33190477
-0.1773746 8.4398289 -0.68837827
-0.14259578 7.6842003 -0.94912916
-0.12487836 7.643301 -1.2547669
-1.3580868 9.4752684 -1.8698422
-0.10291013 7.5732918 -1.5820618
-0.040227763 7.3115187 -2.5037787
-1.0338212 7.5836191 -2.2742817
-0.012646466 6.3320961 -2.4713721
-0.69956011 5.5397253 -2.4842305
0.043816946 4.7904797 -2.586827
-0.61250705 4.9959116 -2.4934063
0.066007979 4.7838082 -2.8911016
-0.18249662 8.1842527 0.034974769
-0.15059605 8.4380207 -0.68682492
-0.11833476 7.6798573 -0.94727015
-0.10065146 7.6365223 -1.2522608
-1.3244063 9.470829 -1.8665543
-0.078941151 7.573885 -1.5808493
-1.152343 8.4585905 -2.1254132
-0.016804628 7.2629204 -2.4841263
-1.0115584 7.6089458 -2.2801955
0.0072709024 6.3394175 -2.4733644
-0.68376768 5.5581532 -2.4914458
0.058331747 4.7865448 -2.5833995
-0.59616607 4.996438 -2.4915297
0.080563918 4.7800021 -2.8874466
-0.15624981 8.2173405 0.036799267
-0.12332083 8.4884682 -0.68944973
-0.092958882 7.6804123 -0.94598055
